ncols  834
nrows  27
xllcorner  -121.354166373
yllcorner  34.14583414
cellsize 0.04166667
NODATA_value -9999
0 0 0 0 0 0 0 0 0 0 0 192 285 357 286 211 46 100 219 539 474 524 703 506 694 644 593 843 852 718 570 605 651 698 607 609 621 716 970 1017 670 509 404 321 284 273 254 204 146 92 91 93 96 98 100 101 102 110 120 137 156 167 198 410 693 919 748 1033 1391 1435 1213 1194 1333 1313 1524 1288 1254 1199 987 691 652 637 702 876 910 958 967 930 919 916 932 984 821 815 871 933 1029 1086 1034 1047 1030 926 922 917 926 962 1016 1156 1200 1119 975 837 739 771 729 609 479 449 474 590 620 641 769 801 760 453 289 326 377 432 539 685 857 1076 1184 1255 1387 1496 1532 1442 1305 1293 1376 1763 1866 1847 1529 1395 1319 1253 1242 1227 1059 787 714 750 875 1024 1314 1013 774 527 208 358 543 814 1180 1173 976 919 923 936 993 1258 1287 1067 1019 1040 1081 1128 1179 1383 1426 1317 1232 1218 1294 1578 1648 1588 1595 1648 1709 1710 1681 1662 1647 1726 1777 1796 1620 1580 1654 1621 1645 1771 1832 1758 1658 1586 1584 1595 1635 1633 1702 1797 1932 2038 2117 2101 2168 2135 2137 2134 2133 2147 2199 2207 2213 2333 2317 2288 2263 2416 2328 2068 2027 2002 1927 1884 1805 1759 1712 1647 1603 1599 1562 1507 1468 1445 1436 1449 1463 1463 1486 1524 1537 1552 1621 1621 1667 1702 1710 1778 1861 1757 1776 1685 1645 1685 1719 1782 1752 1742 1758 1713 1717 1736 1748 1754 1771 1870 1899 1951 1925 1888 1852 1897 1923 1866 1830 1831 1848 1878 1961 2035 2097 2090 2092 2138 2170 2177 2193 2141 2096 2079 2085 2147 2244 2380 2505 2575 2485 2583 2545 2534 2477 2372 2417 2170 2055 2013 2006 2011 2028 2093 2184 2472 2651 2996 3105 2887 2600 2499 2356 2402 2154 2128 2030 1959 1918 1857 1850 1758 1695 1694 1757 1856 1844 1787 1726 1686 1621 1565 1541 1620 2080 2631 2346 2075 1945 1902 1982 2156 2282 2069 2005 1995 2007 2008 2001 1971 2006 2096 2157 2142 2082 2058 2055 2118 2041 1986 1953 1890 1849 1737 1708 1701 1643 1695 1653 1596 1595 1619 1566 1572 1592 1666 1625 1612 1594 1554 1579 1538 1437 1456 1445 1385 1375 1367 1377 1610 1598 1484 1461 1504 1507 1353 1435 1357 1249 1257 1218 1193 1271 1271 1249 1247 1249 1187 1190 1259 1271 1247 1252 1198 1209 1199 1204 1168 1156 1180 1171 1198 1202 1263 1291 1249 1243 1250 1241 1243 1236 1226 1221 1221 1223 1210 1183 1156 1146 1138 1102 1115 1109 1080 1060 1084 1085 1097 1105 1090 1087 1068 1065 1054 1052 1051 1051 1046 1040 1026 1021 1010 1005 990 987 996 983 962 944 909 880 857 883 869 874 860 875 857 830 800 775 782 724 700 679 693 698 692 678 670 644 628 615 611 614 594 584 579 569 565 546 546 572 558 534 539 540 525 540 555 547 537 521 490 476 465 449 456 445 431 465 460 487 465 433 427 437 432 470 442 434 393 405 423 416 407 410 394 396 376 370 393 407 420 406 409 414 380 357 346 360 353 362 343 338 339 333 338 334 334 338 333 331 332 328 308 298 304 288 284 274 276 279 285 286 286 271 255 243 251 241 235 221 265 275 226 243 217 228 213 210 206 188 183 195 186 192 183 184 237 262 203 189 173 158 169 184 178 200 184 149 151 152 180 169 165 152 152 152 152 152 143 141 150 160 164 154 161 160 165 195 153 152 176 173 170 152 169 209 219 249 240 243 337 412 351 264 289 174 210 198 165 134 120 118 122 122 138 186 197 115 93 91 91 91 115 144 177 119 104 93 133 143 141 117 133 162 149 177 193 201 190 194 161 111 87 86 98 85 74 66 61 59 61 60 59 59 58 63 61 58 60 62 61 67 67 66 67 65 68 69 77 106 80 60 60 60 64 63 63 61 63 65 67 67 67 66 63 60 72 71 78 83 89 91 89 96 95 93 117 116 103 114 121 119 116 112 120 139 148 151 152 153 127 129 104 124 151 142 153 139 127 146 153 154 177 150 138 148 145 125 118 118 120 150 173 177 201 172 220 203 215 231 249 282 304 275 255 269 268 263 272 281 268 273 277 298 264 232 240 220 246 256 288 293 282 241 251 276 254 247 220
0 0 0 0 0 0 0 0 0 0 0 2 202 262 293 111 151 101 114 293 350 229 273 382 422 699 738 635 613 909 819 627 699 710 709 610 609 614 690 856 774 586 431 341 347 229 145 107 91 91 91 91 91 92 94 94 96 102 112 123 135 145 215 669 1618 1741 1077 911 1169 1403 1681 1602 1508 1539 1769 1505 1244 1184 865 721 693 680 733 805 879 884 895 864 858 859 869 895 954 1036 859 958 1058 1015 990 948 930 933 933 941 972 1099 1033 1041 1105 1019 978 938 751 679 705 617 516 562 418 480 671 833 846 733 461 378 286 308 354 412 520 681 830 1003 1109 1290 1395 1330 1318 1267 1249 1376 1698 1735 1649 1607 1474 1353 1258 1201 1153 1156 1052 765 705 734 836 1003 1078 951 680 451 267 369 524 752 966 1154 959 883 866 868 905 1092 1109 1063 1074 1108 1189 1230 1233 1288 1272 1207 1238 1142 1234 1542 1548 1466 1518 1566 1611 1647 1672 1607 1710 1791 1783 1824 1737 1584 1536 1575 1547 1612 1821 1649 1579 1559 1548 1579 1584 1589 1661 1767 1943 2014 2108 2500 2218 2168 2156 2116 2088 2084 2136 2208 2164 2191 2263 2272 2208 2134 2103 2078 2024 1968 1948 1905 1848 1790 1753 1676 1635 1592 1567 1534 1498 1464 1449 1452 1468 1491 1490 1496 1497 1512 1518 1548 1636 1691 1712 1755 1782 1686 1651 1651 1656 1646 1691 1708 1694 1691 1680 1694 1706 1706 1717 1754 1793 1828 1881 1897 1888 1823 1809 1839 1825 1802 1887 1924 1943 1965 1965 2014 2049 2119 2133 2110 2136 2164 2168 2116 2075 2072 2115 2199 2215 2273 2364 2531 2512 2572 2534 2392 2407 2496 2423 2223 2125 2085 2009 2015 2063 2169 2298 2370 2586 2801 2935 2630 2501 2399 2266 2007 1947 2013 1927 1965 1928 1850 1822 1768 1716 1662 1705 1795 1817 1760 1685 1626 1568 1527 1560 1689 1936 2781 2725 2208 2033 1997 2159 2336 2123 2032 1976 1952 1959 1971 2001 2060 2083 2086 2117 2139 2086 2115 1980 1942 1912 1947 1887 1853 1830 1759 1750 1743 1620 1622 1644 1577 1558 1587 1560 1570 1602 1633 1613 1569 1566 1575 1532 1477 1451 1410 1427 1393 1412 1391 1410 1482 1589 1588 1551 1505 1443 1393 1398 1373 1316 1305 1218 1228 1274 1274 1237 1228 1204 1187 1204 1270 1279 1276 1273 1230 1251 1189 1164 1155 1164 1183 1183 1214 1263 1293 1292 1287 1273 1264 1254 1253 1253 1241 1227 1217 1213 1191 1183 1197 1190 1177 1159 1164 1145 1108 1108 1113 1112 1108 1096 1096 1084 1070 1065 1066 1061 1055 1054 1048 1040 1037 1023 1018 1005 991 989 974 962 936 921 893 903 918 918 918 900 858 855 838 827 808 785 779 743 717 701 703 699 692 663 667 652 634 622 632 610 600 591 586 581 573 554 538 558 561 545 529 517 517 510 518 518 525 506 506 491 475 478 475 453 427 423 449 468 448 446 435 414 423 440 448 426 392 416 422 404 390 374 368 382 364 362 373 376 398 419 393 393 395 382 349 342 350 355 349 338 333 330 320 307 310 330 334 325 301 297 293 291 279 301 279 274 262 280 271 270 270 270 239 229 236 224 222 258 265 250 238 247 223 213 213 205 198 198 182 184 189 189 189 214 229 238 214 235 247 202 190 185 199 163 155 162 157 186 208 190 180 181 166 152 141 127 141 180 193 190 185 193 182 160 170 191 198 234 249 225 222 185 215 230 204 172 233 333 421 390 295 380 249 174 242 395 238 298 128 112 105 109 108 114 108 96 91 91 91 91 96 121 108 100 91 105 106 105 137 116 118 102 112 124 129 159 175 168 166 171 118 117 109 81 69 67 65 60 59 60 57 58 57 61 58 57 62 63 61 65 65 65 65 65 65 67 77 110 106 61 61 63 62 61 61 61 64 65 65 66 66 67 67 58 73 86 85 87 88 91 98 120 107 104 99 104 106 125 118 127 125 127 146 151 159 176 176 151 145 124 128 106 108 111 124 123 122 139 153 150 168 173 151 128 131 132 115 125 128 144 163 197 213 197 181 227 237 212 233 287 297 272 247 267 242 255 243 275 246 284 300 292 278 262 233 207 230 273 273 273 252 239 266 222 225 261 215
0 0 0 0 0 0 0 0 0 0 0 0 0 5 18 9 142 82 151 137 220 327 321 372 342 411 512 629 552 615 837 714 788 808 853 664 613 609 612 679 822 921 633 445 327 261 270 174 99 91 91 91 91 91 91 91 91 98 108 119 131 183 687 1320 1289 1324 1577 1405 1196 1260 1471 1346 1308 1415 1711 1615 1181 895 792 752 721 707 729 774 812 822 829 841 833 847 854 849 878 945 917 765 850 929 907 1012 1030 990 1008 1015 1009 1118 1084 890 1005 939 818 893 802 717 726 668 608 532 431 355 347 502 768 544 457 513 287 295 363 406 597 844 863 978 1101 1229 1298 1151 1085 1078 1197 1378 1595 1621 1523 1501 1401 1362 1237 1196 1136 1101 1128 762 713 698 784 886 895 775 631 373 249 314 492 659 906 1137 1042 870 824 818 838 986 997 1054 1159 1299 1541 1428 1384 1300 1218 1120 1075 1051 1155 1317 1404 1459 1597 1558 1530 1611 1804 1647 1631 1699 1734 1789 1784 1682 1576 1573 1564 1465 1462 1542 1522 1541 1567 1586 1585 1585 1621 1711 1973 1994 2058 2148 2194 2194 2106 2069 2079 2061 2106 2188 2182 2246 2256 2179 2133 2128 2131 2068 2010 1988 1934 1891 1847 1807 1769 1726 1701 1652 1620 1589 1526 1491 1465 1464 1492 1501 1507 1494 1493 1489 1498 1511 1536 1640 1693 1664 1659 1623 1623 1621 1642 1670 1672 1651 1635 1649 1693 1722 1742 1782 1752 1756 1740 1807 1809 1837 1813 1773 1794 1809 1809 1855 1854 1885 1906 2044 2019 2079 2120 2083 2074 2048 2080 2146 2088 2043 2160 2103 2123 2157 2212 2152 2172 2298 2555 2573 2490 2471 2556 2663 2576 2363 2234 2155 2021 2057 1997 2066 2387 2413 2230 2471 2485 2335 2220 2279 2075 1889 1916 1865 1879 1946 1904 1860 1757 1774 1709 1659 1687 1794 1801 1768 1683 1587 1521 1523 1585 1693 1835 2110 2686 2234 2057 2144 2126 2114 2029 1985 1949 1925 1927 1946 1963 2010 2046 2074 2102 2132 2172 2096 2004 2068 2002 1876 1812 1785 1798 1805 1779 1722 1654 1604 1565 1561 1617 1557 1525 1573 1568 1598 1585 1554 1519 1532 1559 1444 1400 1396 1382 1410 1468 1392 1486 1448 1399 1494 1524 1374 1344 1329 1307 1273 1281 1247 1259 1245 1236 1230 1217 1195 1200 1197 1213 1251 1278 1277 1257 1249 1229 1186 1162 1192 1186 1200 1219 1302 1300 1274 1275 1272 1277 1268 1256 1254 1253 1237 1223 1216 1197 1190 1173 1194 1192 1177 1167 1161 1137 1135 1128 1113 1108 1095 1096 1089 1075 1065 1066 1062 1051 1050 1047 1042 1023 1013 1004 974 978 989 989 979 977 974 973 965 940 931 894 878 880 832 850 845 822 788 764 761 740 721 675 686 661 683 676 624 617 649 649 635 628 617 612 604 591 569 530 531 520 536 557 541 523 506 505 500 504 515 501 509 513 513 480 461 453 457 418 441 452 425 440 437 435 411 422 438 434 420 378 414 374 376 372 356 365 353 352 370 363 391 412 385 372 363 366 367 346 333 347 349 347 356 338 334 328 318 299 296 293 288 302 316 319 293 281 303 282 276 269 263 248 254 247 240 248 259 248 248 274 279 238 235 217 220 198 183 209 203 205 203 184 202 182 189 185 182 193 241 280 215 223 201 193 155 157 175 153 161 190 197 189 203 154 152 139 150 161 152 152 156 153 161 189 206 217 199 223 204 194 200 232 224 204 180 155 145 176 413 674 680 475 358 300 195 186 225 204 120 122 121 116 91 93 92 92 91 150 111 91 92 109 125 117 115 130 119 93 99 101 95 92 102 119 95 115 125 150 151 119 141 132 130 79 71 64 64 65 65 60 59 59 56 57 58 59 56 62 62 60 59 63 63 64 65 65 61 67 79 105 105 62 61 60 60 61 61 61 62 63 64 65 64 65 65 61 68 72 77 78 78 89 99 97 115 121 118 121 122 124 140 150 150 146 145 147 149 169 176 148 128 151 152 126 115 108 128 150 151 153 154 144 156 180 152 136 122 117 116 155 140 177 167 182 214 234 228 232 264 241 270 303 288 283 265 215 228 235 224 240 259 273 274 266 276 295 276 234 202 243 229 260 260 225 254 261 221 249 211
0 0 0 0 0 0 0 0 0 0 0 0 0 0 0 0 0 24 54 137 226 258 309 315 331 469 621 429 528 585 589 755 759 736 852 943 789 670 634 626 672 750 910 723 462 374 240 184 117 108 104 107 107 100 91 91 101 111 123 141 206 332 816 1009 1313 1259 1203 1371 1242 1225 1250 1232 1245 1566 1367 1072 939 865 817 783 742 722 727 808 766 773 784 801 848 881 858 821 806 809 789 741 713 750 852 1060 863 852 973 1019 1050 1076 1010 753 787 597 635 690 759 892 925 834 704 575 486 391 366 374 364 475 412 388 289 291 340 413 499 869 975 1060 1179 1138 1037 931 906 1003 1188 1507 1674 1629 1581 1394 1316 1267 1216 1166 1111 1072 1052 777 694 660 720 826 806 648 441 211 211 316 447 586 736 1092 1039 851 779 776 813 839 906 1111 1206 1402 1711 2006 1701 1406 1253 1128 1021 1056 1135 1184 1349 1381 1551 1643 1535 1558 1598 1614 1611 1649 1821 1816 1802 1730 1625 1695 1726 1531 1414 1452 1545 1667 1656 1649 1603 1586 1586 1648 1790 1967 2057 2043 2191 2214 2102 2049 1958 2056 2093 2181 2240 2233 2293 2127 2140 2128 2123 2181 2086 2044 1989 1940 1876 1823 1793 1764 1741 1696 1673 1638 1592 1538 1514 1502 1512 1526 1517 1495 1493 1492 1501 1545 1606 1620 1635 1605 1583 1601 1626 1654 1658 1641 1640 1642 1649 1697 1708 1724 1723 1708 1729 1742 1729 1768 1740 1751 1738 1769 1813 1856 1865 1864 1932 1972 2030 2014 2050 2084 2058 2011 2032 2071 2042 2012 2079 2019 2036 2077 2095 2129 2135 2173 2171 2179 2251 2376 2527 2669 2509 2558 2544 2402 2343 2243 2128 2002 1957 2028 2280 2255 1999 2140 2128 1988 1991 1993 2103 1872 1815 1824 1858 1961 1880 1773 1747 1706 1707 1646 1657 1790 1791 1766 1669 1558 1514 1535 1593 1675 1794 2366 2669 2115 2085 2127 2114 2032 1999 1960 1934 1908 1910 1918 1925 1974 2056 2073 2101 2121 2203 2196 2092 2063 2047 1931 1861 1824 1794 1722 1711 1699 1661 1632 1622 1649 1626 1635 1593 1528 1543 1577 1584 1520 1491 1498 1500 1438 1457 1393 1411 1417 1437 1413 1402 1379 1345 1330 1310 1301 1298 1309 1339 1317 1322 1283 1324 1300 1252 1231 1213 1201 1198 1210 1224 1231 1237 1235 1223 1220 1200 1179 1197 1196 1218 1258 1303 1295 1282 1272 1267 1265 1263 1263 1258 1254 1251 1243 1235 1216 1191 1192 1176 1179 1178 1163 1156 1147 1140 1130 1122 1111 1095 1096 1091 1086 1067 1071 1064 1046 1051 1049 1039 1035 1031 1026 1017 965 935 930 939 955 952 928 905 891 867 874 884 841 854 805 816 813 759 730 735 717 721 691 670 632 622 612 636 667 602 615 627 608 629 620 585 543 533 527 528 536 534 517 520 529 522 519 501 488 487 504 486 502 498 467 466 459 441 421 410 423 407 408 398 406 411 408 389 405 392 418 396 363 392 360 356 345 354 350 344 359 343 367 388 400 377 361 349 360 367 338 331 352 354 363 370 337 341 335 336 316 325 304 305 294 291 297 299 276 277 276 294 295 279 268 253 254 267 258 242 265 289 274 249 242 237 248 204 215 222 199 187 209 190 187 197 218 210 241 250 205 205 193 183 182 173 169 180 180 176 205 175 152 156 152 157 160 151 152 152 152 170 185 218 196 185 190 193 213 216 203 183 160 172 167 152 166 165 157 182 176 174 145 161 143 155 145 132 130 122 117 121 121 122 96 94 98 102 162 265 221 110 91 91 91 91 91 91 91 108 132 124 137 158 141 158 162 137 133 110 114 126 97 107 81 71 64 63 60 64 65 64 59 56 57 56 58 56 55 63 59 58 60 63 63 63 64 65 62 69 96 114 111 60 59 60 61 59 60 60 61 61 61 63 63 60 61 61 86 91 89 91 90 79 88 88 93 105 119 111 110 124 138 145 139 147 127 140 154 163 165 152 138 161 150 143 141 115 129 143 138 151 143 146 164 175 151 135 137 142 115 154 173 160 184 195 195 210 244 225 264 283 283 296 263 257 254 258 201 212 227 254 270 276 249 250 267 274 282 279 215 200 231 252 225 247 243 230 202 213 218
0 0 0 0 0 0 0 0 0 0 0 0 0 0 0 0 0 11 57 81 170 278 362 246 303 346 418 553 504 556 650 500 500 621 656 886 997 1081 777 699 671 674 741 869 753 518 287 189 166 159 145 148 145 132 117 110 130 145 150 160 209 294 450 719 1111 1201 1399 1572 1624 1682 1402 1425 1357 1366 1146 975 899 856 815 780 749 738 719 725 736 736 761 763 824 886 868 822 786 777 704 650 629 639 652 653 758 803 958 1140 1148 1176 937 691 585 532 522 552 648 888 794 790 725 620 581 543 549 438 344 411 331 307 298 295 308 389 437 590 820 981 1182 1100 883 787 832 998 1263 1557 1582 1477 1377 1302 1274 1212 1170 1177 1117 1055 1019 799 708 636 623 728 706 509 311 212 230 341 458 595 704 1010 1261 819 744 740 765 786 928 1018 1275 1458 2047 1988 1630 1388 1239 1134 985 1024 1221 1316 1465 1461 1628 1640 1492 1519 1555 1633 1647 1653 1761 1776 1850 1820 1734 1800 1727 1530 1441 1403 1467 1567 1719 1740 1651 1575 1533 1591 1636 1929 1943 1937 2054 2131 2065 2025 1987 1832 2070 2193 2202 2194 2239 2054 2084 2126 2118 2112 2192 2181 2034 1968 1902 1872 1825 1783 1745 1700 1680 1678 1633 1575 1538 1530 1572 1542 1521 1498 1493 1494 1555 1578 1561 1569 1581 1570 1579 1618 1679 1702 1644 1621 1627 1646 1685 1703 1720 1695 1674 1695 1733 1708 1713 1690 1719 1728 1741 1778 1787 1802 1831 1879 1928 2037 1992 2025 2046 2049 1992 1971 1943 1928 1935 1956 2036 2139 2152 2170 2098 2128 2153 2172 2201 2204 2221 2255 2322 2467 2580 2446 2434 2356 2422 2343 2106 1992 1966 1954 1952 2126 1918 1889 1887 1891 1964 1900 2037 1935 1762 1778 1783 1926 1884 1760 1716 1716 1679 1638 1649 1759 1777 1743 1621 1538 1509 1557 1605 1650 1751 2137 2128 1972 2105 2182 2068 2022 1996 1951 1917 1905 1893 1898 1931 1974 2057 2067 2107 2140 2219 2125 2059 2020 1984 1963 1931 1872 1860 1835 1751 1784 1750 1715 1702 1637 1617 1664 1640 1588 1545 1500 1569 1518 1462 1469 1517 1454 1433 1433 1421 1458 1433 1401 1394 1383 1374 1359 1336 1358 1411 1402 1366 1354 1361 1329 1301 1282 1248 1238 1233 1217 1229 1233 1252 1249 1233 1228 1216 1206 1187 1188 1199 1232 1268 1316 1302 1287 1272 1264 1271 1266 1263 1267 1258 1256 1251 1240 1227 1210 1197 1192 1178 1169 1172 1165 1145 1143 1124 1123 1116 1105 1096 1093 1080 1081 1077 1067 1064 1056 1046 1040 1024 1023 1011 1018 1018 969 934 907 897 910 897 882 857 866 824 822 846 817 789 761 773 745 778 718 718 683 680 686 700 668 655 642 598 617 604 576 599 580 600 580 593 584 552 548 502 514 541 534 522 499 502 510 498 486 476 486 480 503 497 487 456 435 443 435 410 422 411 420 426 426 402 391 383 379 380 389 357 353 351 356 355 347 334 331 333 352 338 359 376 394 396 375 367 342 340 344 337 327 342 358 350 361 338 347 322 322 301 288 280 295 281 269 268 276 293 284 275 322 292 274 264 274 273 270 257 272 288 249 246 254 249 216 226 219 216 221 212 225 182 193 238 231 236 210 201 218 228 232 193 183 204 216 262 341 367 356 223 161 181 192 205 355 419 156 152 152 163 206 230 342 165 184 195 214 208 199 172 187 168 168 208 166 155 139 127 138 158 152 131 108 106 107 117 120 116 96 94 102 112 93 98 101 176 156 184 157 91 93 91 92 92 92 105 95 99 102 96 118 93 107 124 112 98 99 96 91 79 87 84 75 65 63 62 59 61 63 63 60 57 54 56 56 55 55 62 57 59 60 63 63 64 62 63 62 68 98 100 85 60 60 59 59 59 59 59 60 61 61 63 64 59 61 65 73 87 80 81 87 95 98 94 91 89 91 93 113 117 112 116 118 121 140 152 158 180 153 155 160 153 161 138 131 121 122 139 160 147 130 151 153 154 151 148 131 141 113 147 149 178 189 210 205 227 237 258 268 280 276 290 275 231 244 228 197 239 241 248 245 274 238 242 242 263 271 252 266 220 199 224 196 204 212 222 240 265 291
0 0 0 0 0 0 0 0 0 0 0 0 0 0 0 0 0 17 40 88 113 137 355 317 294 299 362 453 516 710 733 1023 628 531 526 557 702 978 1224 936 834 785 738 803 747 604 352 249 241 244 218 221 221 200 174 163 182 207 217 214 227 293 409 509 752 1281 1978 1820 2052 2057 1710 1385 1218 1097 978 880 834 816 795 792 823 790 766 719 720 718 729 743 766 802 797 780 781 743 708 644 620 615 617 628 677 764 900 1072 1105 1048 996 823 700 583 528 531 547 601 654 645 604 543 469 490 535 402 352 331 327 307 303 322 349 401 429 514 703 787 895 872 726 724 841 1111 1398 1582 1390 1306 1239 1281 1232 1330 1107 1056 991 1014 953 885 831 666 602 687 897 461 258 214 221 298 416 676 803 987 950 854 720 694 709 758 827 971 1160 1350 1808 1896 1571 1285 1170 1022 880 1048 1296 1429 1432 1338 1344 1437 1412 1525 1585 1666 1649 1646 1701 1760 1822 1865 1830 1829 1667 1571 1482 1418 1400 1426 1644 1770 1730 1655 1476 1486 1499 1566 1676 1805 1976 2011 1960 1869 1899 1680 2150 2105 2104 2158 2137 1985 2140 2229 2188 2147 2130 2126 2134 2051 1966 1912 1881 1831 1776 1728 1689 1685 1658 1620 1572 1541 1525 1521 1521 1498 1493 1513 1531 1529 1546 1553 1552 1579 1618 1665 1693 1698 1618 1603 1633 1685 1704 1699 1701 1646 1676 1703 1683 1671 1676 1677 1716 1753 1798 1846 1846 1844 1840 1870 1959 1955 2004 2022 2029 2001 1933 1900 1903 1935 1955 2018 2092 2148 2149 2194 2159 2179 2153 2161 2171 2194 2213 2259 2255 2333 2429 2513 2375 2404 2350 2378 2136 2003 1979 2072 1971 1983 1913 1875 1886 1882 1845 1807 1799 1778 1753 1771 1822 1945 1947 1787 1701 1674 1663 1624 1648 1755 1754 1713 1596 1510 1503 1594 1613 1643 1741 1935 2114 2109 2256 2195 2126 2099 1996 1953 1912 1900 1898 1890 1929 1960 2045 2044 2063 2131 2150 2146 2035 1970 1948 1923 1918 1901 1887 1828 1807 1812 1792 1739 1707 1654 1624 1696 1677 1661 1598 1584 1550 1479 1436 1462 1491 1521 1498 1481 1467 1535 1441 1414 1438 1437 1410 1373 1374 1386 1403 1363 1371 1420 1379 1285 1265 1267 1265 1276 1246 1229 1263 1256 1283 1296 1260 1249 1222 1204 1194 1196 1211 1260 1322 1317 1305 1284 1278 1269 1269 1261 1262 1260 1247 1248 1241 1229 1210 1196 1187 1186 1168 1159 1151 1144 1138 1118 1106 1112 1104 1098 1073 1079 1042 1023 1067 1065 1057 1052 1049 1044 1038 1034 995 976 1001 960 941 913 898 886 853 835 818 820 797 788 808 827 775 773 751 729 713 699 671 667 663 663 679 670 654 630 606 607 575 555 574 555 597 559 538 541 543 509 499 512 528 519 506 501 486 511 509 490 469 468 478 477 467 461 445 435 424 418 425 430 419 428 436 421 427 422 410 409 391 378 375 383 375 410 380 362 361 334 328 334 331 365 360 364 378 371 364 361 356 333 331 341 321 334 332 349 334 336 316 302 298 305 306 305 300 281 278 280 262 280 286 284 273 249 244 245 259 254 275 270 245 237 231 280 238 232 237 209 198 226 235 186 182 183 214 225 216 234 249 294 287 299 272 255 385 337 311 284 262 209 159 230 285 254 249 250 225 150 149 154 204 405 304 234 186 212 219 200 184 183 173 201 208 226 265 234 232 296 455 524 307 382 225 256 135 113 109 174 225 190 137 112 98 109 109 143 167 165 162 117 120 123 140 109 123 122 93 89 107 129 92 98 90 104 116 127 136 122 121 115 94 70 63 62 64 61 60 62 58 60 59 59 57 53 54 54 54 56 58 56 59 63 63 63 64 63 62 60 65 87 88 63 60 59 59 59 59 59 60 60 60 61 62 56 62 82 76 88 81 90 93 93 95 93 97 106 115 113 104 103 105 117 118 118 130 121 138 168 167 180 158 156 174 150 158 128 132 119 124 134 123 146 143 147 151 153 160 159 155 129 141 146 158 190 205 221 221 201 227 267 259 272 252 247 238 221 199 234 240 235 245 266 255 258 222 222 249 231 225 244 221 205 202 203 254 251 266 249 262 279
0 0 0 0 0 0 0 0 0 0 0 0 0 0 0 0 0 32 27 37 59 76 108 198 211 385 570 422 485 515 831 937 1263 767 613 634 571 598 779 861 778 885 1018 966 877 719 603 528 437 397 367 384 417 418 514 490 471 322 291 266 271 338 558 771 1153 1482 1385 1503 1884 1820 1731 1413 1099 989 936 884 833 781 785 779 780 766 727 700 694 700 710 725 747 761 759 748 742 729 716 675 645 632 628 628 653 707 776 902 844 830 865 1014 1147 720 553 550 541 543 551 562 537 513 690 667 554 472 421 365 360 384 434 440 677 474 422 462 553 639 689 639 641 717 899 1286 1371 1280 1365 1128 1078 1088 1072 1050 1016 959 907 910 871 831 778 674 580 588 798 393 214 182 192 255 365 513 655 863 1186 876 684 643 678 734 795 978 1406 1551 1600 1775 1527 1260 1141 981 861 1144 1107 1196 1159 1185 1224 1321 1486 1652 1611 1643 1766 1712 1697 1760 1958 1982 1989 1836 1696 1597 1510 1448 1394 1390 1415 1566 1648 1596 1476 1413 1410 1415 1549 1601 1658 1879 1877 1834 1628 1608 2046 2091 2085 2029 1834 2045 2127 2227 2237 2207 2181 2174 2192 2182 2160 2058 1940 1941 1828 1755 1713 1692 1675 1628 1587 1559 1529 1537 1526 1513 1500 1502 1505 1539 1567 1559 1560 1548 1598 1599 1613 1615 1566 1598 1629 1631 1641 1630 1625 1651 1661 1649 1645 1649 1657 1691 1726 1808 1885 1939 1969 1970 1963 1995 1973 1950 2006 2019 1998 1976 1916 1895 1948 2081 2129 2125 2064 2160 2197 2235 2245 2216 2193 2178 2170 2191 2228 2281 2249 2300 2350 2372 2421 2303 2360 2249 2219 2011 2002 2056 2064 2018 1962 1959 1966 1920 1911 1868 1842 1860 1776 1712 1721 1732 1752 1755 1717 1683 1662 1621 1611 1705 1717 1671 1584 1501 1511 1592 1612 1645 1765 1874 2002 2237 2283 2261 2165 2086 2030 1948 1900 1893 1889 1905 1920 1946 1993 2034 2098 2168 2159 2124 2071 2042 2006 1960 1909 1889 1872 1837 1819 1801 1768 1737 1705 1653 1626 1659 1650 1629 1589 1559 1551 1467 1490 1479 1478 1492 1519 1525 1512 1528 1473 1514 1581 1498 1469 1634 1579 1404 1347 1332 1324 1315 1298 1279 1283 1347 1314 1272 1245 1256 1276 1306 1350 1384 1302 1276 1250 1244 1242 1226 1234 1266 1334 1311 1301 1283 1280 1262 1259 1257 1250 1252 1254 1254 1242 1238 1214 1194 1205 1189 1175 1164 1158 1149 1142 1128 1113 1094 1069 1098 1099 1090 1077 1050 1029 1059 1058 1050 1045 1038 1036 1034 1021 979 1000 946 899 898 889 892 869 854 811 788 784 757 751 743 749 723 728 702 700 686 697 679 631 641 651 649 641 645 628 621 589 585 560 544 551 538 527 512 506 506 487 513 518 518 530 513 481 491 488 485 480 460 471 464 455 450 440 429 426 428 433 440 430 433 436 432 426 424 438 408 408 411 394 408 391 408 389 384 367 364 339 335 333 349 344 365 361 351 345 359 345 362 341 322 317 329 340 330 339 330 336 324 316 319 324 330 312 302 297 292 283 284 254 269 270 244 235 235 224 243 269 260 242 234 276 292 242 217 209 212 206 192 198 196 196 194 184 201 222 239 335 332 302 391 384 405 417 264 213 203 174 185 239 280 215 214 192 187 154 146 147 158 170 194 212 217 239 303 389 318 289 205 203 269 251 303 336 340 368 378 547 471 199 162 142 147 118 131 232 147 117 135 209 231 177 165 169 174 221 227 221 179 132 86 88 83 84 87 81 94 142 140 113 92 161 189 172 151 151 151 134 116 84 83 73 68 66 71 73 66 60 61 59 58 55 54 54 54 53 56 58 55 59 63 62 63 63 64 61 61 65 79 91 59 58 57 59 59 60 58 59 60 61 55 62 60 59 69 76 90 95 113 111 113 118 119 108 111 121 121 122 123 123 135 140 119 126 131 119 144 152 168 188 183 170 164 161 128 147 123 149 127 131 143 153 152 156 151 146 144 128 171 144 132 168 198 203 215 189 225 248 250 228 236 223 214 219 194 189 214 222 211 236 242 240 249 254 227 224 246 221 197 192 204 226 234 274 275 277 276 273 269
0 0 0 0 0 0 0 0 0 0 0 0 0 0 0 0 1 31 35 35 37 60 101 126 311 277 537 545 706 550 598 831 1106 1327 917 799 730 681 654 630 667 676 756 786 888 906 946 959 707 613 681 730 817 888 909 1046 628 446 394 340 340 556 1025 1529 1367 1531 1831 1575 1249 1296 1238 1125 976 923 881 871 807 774 763 775 761 738 762 687 687 692 707 750 815 822 820 791 788 746 721 686 676 663 660 708 652 738 708 825 848 725 690 841 867 737 657 570 552 546 527 525 575 697 812 776 716 636 502 411 409 506 661 631 628 676 668 518 487 531 597 641 694 799 1156 1784 1188 1059 1043 1013 988 945 933 918 951 875 850 822 777 727 676 611 537 480 507 259 157 149 152 225 327 428 527 904 1035 854 713 618 633 678 752 979 1233 1848 1836 1589 1433 1186 1011 1003 884 901 1047 1214 1377 1382 1339 1482 1674 1947 1856 1703 1781 1780 1718 1785 1849 2018 2042 1982 1650 1590 1514 1464 1433 1400 1394 1401 1435 1559 1448 1400 1358 1324 1363 1388 1480 1473 1677 1391 1770 1653 1677 1865 1775 1689 1790 2011 2031 2059 2159 2339 2381 2158 2194 2195 2174 2125 1940 1871 1836 1776 1732 1718 1701 1656 1624 1596 1588 1582 1559 1547 1532 1514 1517 1497 1505 1521 1518 1524 1536 1566 1568 1575 1570 1608 1588 1586 1588 1626 1632 1637 1644 1645 1647 1645 1677 1702 1716 1826 1877 1973 1988 1988 1988 1997 1953 1951 2009 2011 1972 1937 1896 1960 2014 2067 2139 2202 2191 2150 2195 2247 2298 2248 2200 2208 2240 2225 2240 2277 2289 2307 2353 2385 2358 2311 2202 2151 2097 2043 2049 2100 2398 2071 2002 2009 2008 1895 1907 1911 1903 1889 1761 1710 1694 1684 1670 1682 1662 1630 1617 1586 1626 1700 1676 1627 1591 1497 1514 1611 1605 1641 1727 1841 2221 2238 2280 2217 2156 2092 1999 1934 1904 1890 1891 1919 1922 1950 2004 2037 2130 2198 2145 2130 2083 2038 2012 1990 1933 1893 1881 1842 1794 1807 1768 1746 1707 1685 1648 1647 1650 1641 1590 1538 1477 1424 1440 1456 1498 1455 1471 1533 1524 1503 1524 1554 1590 1576 1630 1644 1631 1607 1445 1369 1459 1328 1314 1288 1316 1416 1521 1323 1268 1293 1315 1391 1475 1484 1440 1456 1329 1355 1321 1294 1326 1322 1326 1305 1287 1280 1272 1264 1268 1271 1269 1264 1258 1247 1245 1227 1201 1185 1176 1177 1159 1158 1151 1142 1141 1120 1098 1087 1068 1086 1106 1097 1065 977 940 1033 1026 981 952 1019 1027 1028 1020 1006 923 875 841 827 861 889 886 855 830 823 816 811 793 771 755 762 743 722 738 727 702 677 667 642 614 605 605 597 595 607 602 577 559 547 533 522 521 513 504 491 485 488 491 487 500 498 476 484 468 479 475 454 466 472 463 451 435 429 445 441 446 450 482 486 452 437 420 411 415 419 410 427 438 429 421 429 394 371 365 350 332 334 328 322 345 337 362 363 330 341 324 323 333 336 312 305 317 318 329 313 309 304 315 291 291 315 294 305 302 284 282 303 279 268 243 257 271 244 243 237 238 216 229 254 285 256 219 215 226 204 211 214 209 215 187 188 221 249 261 272 242 258 261 262 356 306 410 282 208 271 202 227 209 187 184 165 162 152 152 153 176 274 272 257 314 555 463 549 453 311 264 243 240 268 318 467 347 339 431 321 189 165 277 338 383 374 291 221 137 118 106 112 109 111 132 132 123 108 94 91 90 89 94 121 109 120 123 159 120 87 85 94 89 89 106 116 95 93 95 101 96 84 93 93 87 75 74 77 77 66 62 63 63 63 58 54 54 53 52 54 54 54 59 60 60 62 62 62 62 57 63 71 105 67 57 56 54 59 60 60 59 60 60 60 56 61 64 90 90 88 90 110 116 112 117 121 120 118 116 120 125 135 143 151 145 148 153 142 134 133 157 176 179 188 184 172 148 131 149 127 166 151 133 119 143 151 147 151 146 145 171 182 150 172 137 178 182 178 193 207 244 231 200 191 188 202 215 208 190 215 218 214 210 224 213 231 240 243 201 232 203 188 222 247 247 273 264 261 269 268 259 252
0 0 0 0 0 0 0 0 0 0 0 0 0 0 0 0 52 240 185 37 48 61 109 121 124 204 453 524 664 488 542 636 794 951 1381 1347 1213 992 808 751 722 719 731 744 824 1000 1239 1113 1081 1184 1205 1252 1116 1417 1052 1108 958 865 855 816 718 1035 1308 1445 1616 1566 1368 1228 1124 1018 984 929 876 835 867 831 794 806 852 836 787 759 702 686 684 687 732 859 910 867 913 926 883 834 737 705 697 690 690 673 662 659 688 669 661 705 638 603 613 633 574 557 548 543 560 653 656 759 938 852 795 750 621 503 599 877 817 800 714 686 583 493 518 575 719 773 782 908 1120 1396 1108 952 919 907 876 846 817 805 841 789 788 819 733 678 641 614 531 442 482 278 206 152 152 180 279 354 451 622 837 910 945 678 593 641 735 940 1219 1362 1657 1649 1428 1330 1163 945 818 750 943 1242 1539 1502 1400 1474 1694 1772 1726 1805 1816 1754 1700 1815 2043 1931 1769 1646 1607 1596 1522 1468 1425 1401 1383 1342 1346 1386 1406 1400 1342 1279 1243 1269 1391 1353 1411 1358 1509 1413 1453 1685 1449 1526 1901 1751 1926 2063 2130 2223 2289 2171 2209 2199 2176 2137 1999 1904 1836 1787 1767 1754 1720 1751 1655 1637 1628 1604 1588 1567 1576 1570 1554 1532 1526 1532 1525 1547 1538 1530 1568 1589 1576 1584 1576 1582 1602 1642 1652 1659 1648 1646 1689 1714 1724 1765 1768 1822 1853 1934 1972 1977 1962 1919 1902 1943 1985 2001 1962 1896 1891 1947 1994 2027 2067 2173 2195 2192 2206 2258 2267 2243 2255 2277 2270 2262 2262 2316 2316 2329 2327 2316 2280 2234 2182 2133 2106 2077 2117 2388 2190 2094 2078 1958 1911 1938 1900 1833 1794 1766 1736 1722 1721 1703 1698 1731 1607 1576 1582 1660 1714 1678 1699 1597 1572 1505 1529 1587 1604 1653 1721 1820 1977 2108 2274 2256 2153 2047 1986 1952 1900 1877 1876 1911 1918 1945 1991 2017 2082 2103 2093 2084 2080 2032 2002 1984 1938 1916 1896 1841 1777 1767 1761 1755 1715 1686 1624 1585 1553 1585 1542 1504 1449 1437 1393 1453 1480 1429 1432 1486 1499 1501 1510 1535 1572 1506 1469 1507 1537 1548 1404 1383 1373 1384 1321 1318 1320 1363 1323 1286 1296 1307 1370 1417 1459 1454 1442 1437 1408 1409 1404 1382 1375 1360 1333 1313 1313 1291 1283 1274 1269 1267 1257 1247 1233 1225 1215 1203 1188 1173 1168 1162 1158 1157 1151 1135 1142 1139 1129 1105 1096 1106 1111 1096 1073 1030 1025 929 938 1018 843 923 908 985 1022 1020 1005 971 903 849 806 830 859 883 859 847 815 796 796 760 782 761 741 733 730 717 697 685 670 647 636 639 623 630 596 581 582 582 576 576 560 564 544 536 517 525 517 491 477 475 464 477 495 465 464 483 468 451 453 463 463 474 456 442 452 454 483 466 496 493 482 502 443 419 396 395 408 432 420 426 427 428 400 368 350 364 360 349 344 329 325 331 336 353 335 314 330 304 313 334 339 337 333 330 313 306 295 293 290 309 297 293 292 279 293 267 272 284 255 275 262 252 249 263 244 255 255 231 272 284 241 241 246 215 236 213 213 221 216 188 207 213 189 186 204 192 195 213 212 194 185 189 183 199 188 183 175 160 156 154 146 148 157 178 179 177 205 344 484 258 201 190 192 198 232 261 214 213 213 235 243 279 337 293 247 281 349 297 177 141 129 129 123 123 122 184 203 252 234 212 215 178 141 143 152 155 200 226 207 181 226 198 198 190 150 120 102 80 84 108 114 118 100 92 94 93 84 78 91 90 79 77 78 76 69 63 66 60 62 61 60 53 57 52 53 53 53 58 59 59 61 60 61 62 63 62 57 67 74 92 56 55 58 57 57 59 60 60 58 60 53 61 61 73 84 97 96 109 113 94 112 114 92 110 121 110 119 137 151 155 153 173 170 155 160 154 150 154 165 168 181 152 147 152 150 139 165 156 147 134 121 134 134 153 177 168 175 163 135 171 148 146 174 136 170 200 198 211 186 173 181 181 203 187 185 218 216 189 210 211 215 228 231 232 209 210 203 192 223 240 252 259 257 243 250 258 251 243
0 0 0 0 0 0 0 0 0 0 0 0 0 0 0 0 0 60 308 204 102 102 122 193 165 133 214 426 372 451 642 640 666 807 848 1214 1216 1315 1076 854 869 854 840 866 832 1000 1127 1313 1424 1466 1507 1935 1864 1585 1717 1502 1526 1378 1277 1172 1220 1036 1326 1223 1155 1140 1095 1038 1033 952 855 820 784 791 761 756 752 733 717 742 752 711 694 687 686 706 747 805 887 911 861 862 880 885 805 768 736 728 804 708 671 674 713 756 684 640 630 605 594 585 570 560 561 559 547 598 646 731 913 1120 1182 801 625 448 618 624 722 763 788 869 600 534 568 661 741 848 915 1042 1399 1474 1039 886 827 803 782 743 725 714 735 719 786 918 724 657 704 775 582 457 399 330 226 152 153 155 225 304 379 490 553 765 915 833 555 608 702 790 969 1037 1580 1862 1801 1485 1197 1067 839 757 903 1201 1484 1628 1458 1397 1429 1499 1693 1788 1736 1683 1602 1775 1931 1951 1788 1735 1649 1614 1529 1469 1412 1402 1422 1387 1349 1354 1382 1338 1306 1318 1332 1250 1234 1224 1299 1366 1389 1310 1337 1357 1368 1391 1391 1749 1975 1970 2048 2185 2258 2259 2346 2261 2214 2149 2044 1953 1864 1813 1795 1772 1796 1892 1708 1685 1658 1650 1608 1609 1625 1612 1593 1567 1550 1569 1575 1578 1579 1569 1576 1571 1584 1571 1570 1597 1626 1658 1686 1708 1706 1705 1697 1705 1710 1739 1754 1780 1868 1954 1957 1919 1885 1845 1889 1946 1948 1935 1896 1889 1904 1955 2024 2074 2090 2127 2181 2176 2179 2179 2203 2233 2255 2256 2284 2292 2295 2324 2369 2374 2316 2298 2253 2217 2160 2140 2133 2177 2144 2418 2263 2318 2094 2042 1955 1976 1890 1813 1764 1774 1738 1751 1758 1800 1913 1780 1627 1575 1580 1656 1687 1699 1636 1574 1527 1484 1505 1565 1614 1662 1725 1796 1970 2279 2355 2249 2140 2042 1983 1935 1891 1872 1870 1878 1886 1903 1942 1977 2023 2103 2115 2092 2065 2037 1994 1953 1882 1833 1824 1785 1739 1700 1665 1648 1615 1611 1610 1629 1635 1574 1561 1521 1462 1425 1423 1436 1443 1405 1400 1442 1447 1433 1460 1471 1508 1461 1464 1559 1602 1600 1563 1494 1383 1358 1359 1356 1353 1358 1345 1362 1358 1396 1387 1443 1427 1429 1412 1415 1399 1387 1387 1379 1375 1360 1348 1329 1295 1296 1280 1265 1256 1246 1237 1221 1203 1193 1188 1182 1174 1158 1156 1150 1145 1149 1126 1116 1151 1156 1144 1129 1119 1117 1109 1096 1081 1071 1028 888 860 907 841 824 821 845 966 974 1002 937 836 794 774 780 809 853 859 869 844 808 785 801 798 776 755 728 681 674 677 653 644 639 634 623 606 605 593 567 571 551 552 558 561 542 519 516 519 521 512 497 488 496 491 463 458 504 493 517 447 447 452 452 456 472 479 464 487 492 499 503 572 588 532 521 494 426 401 381 397 404 420 396 406 410 392 367 373 374 387 354 338 335 336 326 316 330 307 316 313 305 295 303 314 324 315 331 336 316 309 309 309 321 324 317 314 306 281 287 290 278 273 244 262 274 277 272 263 267 247 267 289 263 243 233 211 223 214 235 216 223 231 213 214 220 190 190 219 226 201 248 254 268 281 263 220 242 221 220 181 229 207 206 184 189 167 153 188 187 190 222 187 187 212 214 278 310 255 229 232 217 241 269 308 341 392 378 293 206 158 152 152 156 183 198 244 269 244 254 250 283 243 200 176 178 167 174 200 247 325 261 199 144 138 131 111 108 92 88 95 76 106 89 107 122 103 84 85 87 78 76 84 76 76 73 68 66 65 65 64 60 59 57 55 51 53 52 52 51 54 57 57 57 60 60 59 60 61 60 58 62 62 58 56 55 59 59 58 57 58 60 56 54 60 59 82 88 88 81 86 92 109 89 111 86 114 120 115 126 122 119 121 144 158 162 181 180 174 157 165 164 169 180 184 159 143 154 153 146 160 178 153 144 132 124 148 155 164 163 147 155 157 167 161 168 144 199 199 132 165 176 186 174 159 178 190 191 179 182 207 202 185 195 215 215 202 215 223 188 211 224 226 236 238 246 250 238 257 250 243 241
0 0 0 0 0 0 0 0 0 0 0 0 0 0 0 0 0 0 64 135 226 203 263 293 266 228 242 257 276 340 449 566 495 527 589 696 919 1219 1371 1277 1071 1085 1093 932 954 958 1116 1137 1235 1345 1629 2291 2004 2075 1904 1696 1868 1690 1469 1190 1159 1385 1207 987 951 939 933 898 865 822 800 790 762 742 731 731 714 700 700 699 692 696 695 692 689 735 792 828 886 944 947 885 829 816 809 840 800 746 803 717 720 734 741 828 838 800 780 758 719 653 611 609 596 554 544 588 610 619 706 813 908 696 539 425 401 493 622 819 791 725 635 594 624 863 1328 1464 1319 1174 1381 1169 927 799 751 728 685 653 642 645 669 709 774 839 703 637 714 797 687 545 598 566 273 197 145 140 177 251 324 394 451 518 669 636 534 567 659 755 874 1019 1279 1683 1641 1298 1188 987 820 728 846 1112 1357 1678 1447 1312 1377 1456 1542 1517 1404 1444 1707 1742 1832 1888 1976 1701 1630 1533 1475 1464 1413 1403 1527 1529 1437 1364 1381 1499 1492 1518 1456 1405 1446 1458 1251 1117 1280 1244 1234 1230 1336 1295 1427 1718 1776 1954 2021 2151 2242 2301 2341 2280 2229 2174 2130 2057 1901 1866 1840 1811 1779 1722 1804 1781 1705 1676 1657 1649 1645 1650 1641 1592 1632 1641 1648 1639 1621 1632 1638 1633 1644 1638 1582 1593 1601 1633 1650 1704 1713 1707 1723 1708 1706 1709 1717 1764 1852 1889 1875 1844 1831 1841 1896 1925 1899 1855 1905 1919 1894 1931 1956 2035 2091 2134 2124 2130 2130 2157 2224 2233 2214 2272 2284 2299 2309 2331 2379 2373 2270 2228 2213 2194 2191 2174 2159 2343 2362 2373 2371 2201 2278 2179 2039 1997 1832 1813 1769 1750 1817 1825 1825 1828 1967 1927 1641 1577 1549 1648 1656 1638 1612 1553 1499 1479 1505 1563 1608 1664 1737 1844 2235 2319 2319 2218 2093 2011 1957 1927 1888 1867 1865 1866 1869 1882 1943 1958 1982 2049 2134 2083 1985 1947 1943 1937 1915 1838 1769 1788 1761 1719 1707 1707 1717 1769 1745 1691 1611 1589 1555 1524 1548 1531 1476 1373 1449 1425 1381 1420 1402 1409 1397 1396 1421 1471 1518 1592 1590 1564 1545 1497 1503 1460 1506 1457 1444 1500 1476 1471 1458 1446 1425 1416 1410 1403 1406 1398 1388 1378 1371 1366 1363 1349 1336 1310 1295 1280 1262 1247 1239 1242 1222 1206 1191 1190 1182 1177 1172 1158 1145 1140 1128 1141 1140 1149 1156 1151 1144 1133 1117 1113 1102 1096 1081 1065 1066 1052 1027 976 970 859 770 821 801 828 902 903 822 793 771 738 773 792 783 844 838 816 819 815 802 765 745 715 676 667 640 639 605 590 589 608 598 583 583 589 582 578 553 534 533 518 514 522 498 489 485 508 478 454 457 458 464 474 473 450 450 439 451 446 467 462 457 472 490 575 544 544 512 530 533 519 521 455 407 380 379 390 412 414 397 376 370 377 391 421 395 368 356 346 350 328 305 300 294 293 294 293 287 285 290 302 294 307 311 301 298 321 342 338 334 337 309 324 306 286 284 303 281 258 253 239 260 261 241 252 268 244 256 259 259 251 213 235 219 222 213 214 219 216 219 210 217 213 213 231 271 280 230 243 286 308 307 270 230 236 277 274 258 220 270 331 288 219 195 158 187 216 263 276 317 297 301 297 313 280 281 261 309 292 265 230 248 269 240 173 195 200 235 227 260 266 317 297 241 237 247 255 236 219 286 255 266 416 391 366 372 382 281 265 246 207 208 151 127 108 95 102 79 93 112 153 149 91 75 74 73 76 76 76 71 74 72 72 70 69 72 68 67 60 60 51 55 52 49 50 53 57 57 54 54 55 58 60 60 60 63 53 56 56 56 55 58 59 59 54 53 57 60 60 59 58 91 80 73 82 103 100 91 84 82 85 91 103 121 132 138 148 144 140 144 158 179 163 160 159 182 169 175 162 164 152 151 158 152 163 150 154 164 156 148 134 144 153 167 158 163 145 156 178 173 155 130 200 173 150 142 159 159 162 166 149 173 186 173 157 163 182 173 179 186 198 186 192 194 189 212 227 227 225 222 223 237 236 263 250 250 267
0 0 0 0 0 0 0 0 0 0 0 0 0 0 0 0 0 8 58 78 141 177 171 250 231 309 348 310 330 518 641 877 629 717 958 974 882 827 1272 1373 1501 1339 1155 1329 1208 987 1052 1213 1291 1394 1566 1814 2209 2162 1872 1701 1861 2239 1773 1303 1214 1260 1047 979 926 916 894 858 841 823 798 789 762 737 731 731 714 700 700 700 708 710 712 714 774 851 848 858 895 912 909 872 840 817 820 807 789 719 711 741 773 784 849 864 864 1012 990 1133 996 1000 1026 1001 743 585 553 569 563 592 612 661 750 939 702 576 426 463 574 702 846 830 745 797 797 892 1383 1762 1567 1249 1111 972 844 751 741 749 687 597 583 600 675 753 854 862 685 605 601 624 644 682 694 477 333 244 176 139 155 216 263 312 362 420 474 476 483 541 634 728 834 926 1236 1618 1627 1539 1190 954 798 675 752 966 1234 1375 1487 1351 1260 1323 1306 1215 1435 1568 1697 1776 1798 1828 1793 1745 1715 1585 1489 1463 1414 1405 1474 1553 1442 1403 1446 1473 1529 1600 1607 1550 1670 1487 1216 1073 1187 1184 1161 1240 1324 1321 1309 1494 1582 1751 1929 2085 2250 2261 2325 2378 2183 2123 2078 2046 2037 1945 1892 1844 1826 1801 1875 1820 1737 1720 1716 1696 1682 1657 1678 1676 1686 1717 1703 1686 1673 1678 1671 1674 1677 1644 1612 1588 1604 1645 1644 1647 1688 1701 1705 1702 1708 1712 1747 1769 1821 1882 1844 1811 1824 1853 1838 1817 1852 1865 1903 1911 1888 1926 1950 2000 2050 2081 2068 2095 2130 2194 2196 2195 2240 2255 2267 2275 2304 2386 2366 2314 2272 2224 2195 2194 2204 2180 2174 2486 2503 2415 2385 2358 2302 2211 2137 2094 1878 1800 1765 1848 1899 1902 1884 1908 1971 1818 1676 1579 1553 1593 1605 1618 1629 1604 1490 1476 1509 1562 1600 1666 1746 1978 2450 2321 2224 2120 2050 1988 1938 1903 1880 1862 1859 1859 1860 1873 1885 1900 1943 1987 2064 2050 1996 1947 1923 1927 1905 1886 1835 1843 1788 1737 1763 1789 1733 1693 1659 1623 1609 1585 1560 1533 1557 1553 1467 1384 1373 1385 1374 1378 1387 1385 1372 1381 1429 1506 1544 1586 1565 1546 1523 1500 1493 1492 1483 1477 1477 1467 1465 1455 1430 1428 1429 1416 1407 1403 1405 1396 1377 1368 1358 1355 1345 1337 1318 1304 1286 1268 1247 1235 1234 1231 1222 1204 1187 1187 1175 1175 1173 1172 1170 1168 1169 1185 1187 1176 1163 1152 1138 1132 1119 1116 1098 1090 1082 1074 1061 1051 1042 1033 1016 928 927 785 787 767 799 857 807 776 764 757 725 744 759 771 758 757 790 761 716 719 710 693 655 648 632 613 628 600 571 595 609 594 595 586 590 575 558 558 557 529 507 504 483 486 509 512 484 443 442 441 452 484 494 463 437 441 452 449 437 449 458 482 488 547 628 615 534 481 458 432 432 430 403 368 379 395 397 393 396 411 412 396 417 407 411 396 377 367 351 355 340 316 320 306 303 312 305 302 281 281 280 289 293 286 308 330 342 338 353 333 329 305 296 281 302 294 278 271 243 239 234 228 229 234 252 242 227 259 226 243 216 232 242 214 221 248 228 220 215 244 282 297 222 227 239 270 263 271 350 399 387 360 341 353 366 394 484 270 238 258 278 267 236 198 224 220 244 267 278 318 357 321 310 288 291 328 255 215 194 190 192 191 251 314 345 309 322 321 319 286 275 318 367 291 276 301 329 351 360 381 347 369 341 286 280 239 237 193 194 208 196 180 153 119 185 133 141 112 80 97 107 83 73 73 73 72 72 68 73 69 67 66 70 73 73 71 70 65 67 58 53 51 51 51 54 55 57 54 54 56 57 59 60 61 62 65 54 56 57 56 59 55 59 54 59 57 59 59 57 62 79 72 73 72 90 99 83 82 95 95 92 116 121 127 148 158 160 162 163 150 167 147 137 149 153 145 149 159 153 176 161 153 151 179 177 152 164 153 149 141 150 150 158 172 150 157 172 183 182 171 139 169 183 159 137 149 153 173 165 152 137 154 172 166 185 177 162 175 170 186 178 192 202 209 211 214 223 210 217 213 226 217 246 230 238 274
0 0 0 0 0 0 0 0 0 0 0 0 0 0 0 0 0 30 63 119 174 210 163 160 206 196 239 270 334 407 447 630 949 872 856 1040 1189 1026 1029 1107 1395 1539 1350 1413 1486 1372 1067 1171 1288 1422 1423 1697 1754 1676 1593 1562 1979 1822 1455 1162 1082 1016 1210 1176 1123 1114 1030 989 910 860 850 841 766 737 731 731 713 700 701 702 719 725 730 773 914 947 919 928 900 914 984 1013 913 841 815 809 734 791 767 803 866 910 977 875 880 947 1021 1097 1177 1284 1299 1076 900 862 840 765 682 616 614 690 685 720 676 570 468 481 639 804 742 867 906 828 871 1025 1101 1118 1110 1091 1033 855 793 981 1021 1076 685 549 539 581 714 914 1119 899 676 582 578 600 651 660 617 669 390 303 227 168 143 186 218 264 301 351 377 423 459 528 604 691 798 902 1056 1410 1608 1217 1077 923 773 669 696 819 1041 1249 1548 1432 1335 1253 1109 1336 1459 1547 1636 1712 1743 1743 1589 1593 1742 1740 1539 1468 1436 1444 1512 1544 1462 1442 1454 1463 1518 1548 1664 1843 2237 1694 1285 1059 1019 1096 1072 1179 1335 1289 1321 1497 1580 1735 1871 1958 2107 2229 2313 2245 2223 2155 2076 2044 2033 1970 1921 1888 1858 1818 1846 1824 1809 1780 1765 1745 1718 1729 1712 1741 1741 1758 1739 1729 1739 1714 1706 1708 1676 1653 1633 1588 1595 1633 1611 1623 1644 1651 1692 1743 1739 1714 1754 1801 1828 1827 1802 1769 1806 1817 1783 1767 1850 1912 1970 1994 1974 1964 1950 1974 2003 2038 2070 2109 2100 2137 2192 2207 2229 2241 2255 2255 2318 2295 2263 2269 2249 2217 2195 2188 2179 2214 2280 2390 2489 2432 2363 2294 2257 2229 2208 2185 1978 1830 1779 1911 1973 1988 2020 2056 1868 1847 1700 1635 1586 1531 1539 1604 1593 1500 1471 1491 1526 1555 1586 1651 1744 2061 2640 2286 2182 2070 1997 1952 1931 1901 1872 1858 1855 1857 1856 1862 1864 1882 1940 1939 1990 2003 1985 1943 1927 1975 1955 1925 1885 1880 1831 1813 1768 1738 1705 1666 1638 1615 1616 1605 1562 1553 1531 1504 1431 1486 1421 1358 1358 1395 1363 1341 1367 1411 1464 1464 1503 1550 1554 1533 1511 1492 1473 1484 1473 1458 1458 1454 1444 1428 1405 1400 1411 1432 1433 1427 1419 1410 1399 1384 1374 1364 1361 1340 1316 1297 1270 1251 1247 1240 1237 1232 1226 1217 1208 1198 1191 1189 1179 1176 1189 1178 1179 1188 1191 1163 1156 1146 1140 1130 1119 1110 1096 1088 1079 1067 1054 1051 1047 1031 1021 1018 972 810 736 714 736 812 811 768 741 731 702 703 704 716 712 738 747 723 734 673 669 643 642 627 606 595 605 583 558 565 571 572 546 541 538 532 516 516 521 504 481 483 469 457 473 487 454 442 434 428 440 460 474 452 424 448 437 443 436 428 434 448 475 498 561 528 573 560 524 530 412 392 367 362 388 373 387 373 371 371 396 397 398 406 389 373 368 378 374 375 351 344 348 329 303 298 298 299 305 295 271 268 269 281 292 300 324 349 332 324 323 305 294 313 281 289 274 254 268 247 247 215 213 214 225 242 227 206 226 257 235 218 231 215 222 220 217 233 265 299 286 245 303 342 279 319 308 323 300 264 533 465 237 214 221 241 290 314 377 435 385 305 273 225 274 276 254 309 304 304 375 354 321 281 285 289 245 307 343 325 342 258 264 259 380 415 380 386 386 359 266 260 249 306 315 285 306 381 407 342 338 267 249 259 225 205 227 239 175 148 169 180 189 176 171 159 146 123 121 87 75 72 72 74 73 70 70 68 68 71 71 70 68 65 66 67 67 65 65 65 59 49 50 52 55 56 55 57 55 54 54 58 60 59 61 66 72 85 52 52 50 50 58 52 57 57 57 57 57 55 58 70 72 82 92 84 76 92 94 95 109 102 109 116 121 129 147 160 156 168 125 156 130 141 123 123 131 145 143 162 155 154 153 176 156 153 160 154 150 145 152 153 167 174 150 181 183 172 173 166 138 177 151 181 154 147 132 148 130 150 154 157 166 175 184 174 166 171 178 170 172 175 174 194 188 198 204 202 198 208 203 218 234 219 222 214
0 0 0 0 0 0 0 0 0 0 0 0 0 0 0 0 0 0 63 111 79 112 162 267 364 391 326 340 312 323 420 410 655 1044 897 1290 1645 1732 1658 1557 1628 1724 1478 1410 1547 1481 1289 1100 1174 1233 1329 1450 1587 1722 1693 1654 1486 1370 1352 1092 972 925 1045 1125 1497 1589 1375 1259 1220 1064 894 817 768 737 731 731 714 716 720 722 731 738 742 755 853 905 892 919 940 914 1055 1036 945 859 802 808 771 905 984 877 1156 1113 1089 1007 960 1049 1113 1168 1285 1261 1177 1308 1273 1239 1215 1065 914 796 703 656 600 672 678 642 600 613 598 599 619 691 725 767 815 902 868 853 875 922 838 740 757 866 857 703 543 489 538 630 793 1011 1013 824 658 580 585 640 685 663 621 570 551 404 320 281 253 182 299 334 349 360 398 442 506 510 562 650 738 841 962 1185 1290 1305 1097 1030 831 655 634 774 914 1047 1277 1295 1346 1320 1074 1321 1340 1480 1640 1640 1704 1609 1469 1663 1698 1614 1609 1523 1480 1481 1514 1552 1510 1489 1500 1491 1519 1534 1625 1780 2136 2209 1534 1161 1043 1044 1034 1103 1127 1142 1259 1364 1573 1721 1921 1964 2018 2109 2170 2154 2098 2143 2106 2059 2033 1962 1965 1928 1907 1867 1889 1870 1841 1831 1818 1785 1777 1760 1746 1756 1788 1808 1782 1792 1777 1758 1736 1710 1693 1676 1652 1606 1596 1591 1591 1593 1631 1659 1706 1702 1702 1707 1766 1811 1791 1780 1781 1760 1767 1767 1767 1794 1819 1871 1981 2053 2044 2065 1991 1994 2043 2067 2074 2097 2120 2141 2197 2229 2245 2274 2258 2255 2277 2280 2297 2255 2237 2209 2192 2172 2167 2244 2288 2462 2479 2432 2292 2255 2227 2202 2201 2132 1897 1866 1853 2017 1982 1996 2211 2017 1846 1788 1727 1680 1590 1559 1522 1561 1590 1496 1467 1483 1526 1544 1583 1678 1755 1934 2497 2310 2125 2035 1990 1947 1906 1886 1870 1861 1855 1855 1857 1858 1865 1881 1909 1956 1980 1980 1948 1948 1908 1930 1953 1945 1907 1862 1814 1812 1773 1734 1683 1668 1647 1617 1618 1585 1584 1551 1516 1508 1493 1481 1460 1379 1340 1363 1355 1322 1362 1417 1417 1447 1453 1452 1484 1533 1518 1479 1453 1454 1450 1448 1436 1432 1446 1436 1417 1407 1397 1395 1390 1385 1380 1373 1379 1380 1364 1360 1364 1347 1328 1314 1288 1255 1254 1249 1232 1232 1232 1222 1204 1197 1188 1182 1174 1173 1173 1169 1163 1174 1172 1160 1149 1141 1125 1117 1107 1099 1088 1081 1077 1066 1052 1043 1036 1027 1021 1019 1010 981 898 770 697 763 798 772 756 723 697 657 674 671 692 683 691 675 673 646 646 627 609 606 574 570 576 576 564 544 547 551 532 514 515 508 506 497 505 505 479 460 453 446 454 458 446 436 426 423 436 433 441 428 437 429 416 417 427 424 428 439 452 455 505 517 456 463 471 457 435 390 364 350 368 365 354 362 350 371 390 390 376 393 422 398 381 360 352 347 355 338 319 318 325 311 316 305 302 304 303 289 263 283 298 310 335 337 332 348 344 340 349 317 269 244 254 235 252 233 229 236 216 216 204 206 218 217 221 240 224 219 228 230 235 229 236 298 243 271 306 339 335 310 217 191 193 196 219 281 302 324 223 212 205 213 215 244 242 261 337 339 488 416 347 348 455 513 541 590 544 475 397 331 308 348 329 350 308 344 363 493 436 373 325 288 280 399 374 259 217 221 218 213 234 360 299 284 269 249 240 215 193 239 221 201 185 178 172 141 132 128 176 166 135 148 118 96 79 80 89 75 72 69 69 69 70 71 66 63 69 70 63 67 66 64 64 63 65 59 59 49 45 52 56 56 55 54 55 54 54 53 59 58 60 67 65 87 55 55 54 57 55 56 57 57 55 57 53 56 71 83 83 72 73 74 85 94 93 112 115 122 137 123 153 148 150 177 137 140 120 135 117 127 147 160 143 127 131 146 160 155 181 166 169 150 169 160 153 150 151 151 142 170 163 169 177 176 153 155 147 204 156 205 251 150 160 183 148 153 150 153 163 171 180 167 166 170 168 174 180 182 179 172 188 178 185 187 183 187 190 210 218 209 211 195
0 0 0 0 0 0 0 0 0 0 0 0 0 0 0 0 0 1 62 60 59 59 70 145 201 272 313 323 244 288 300 327 399 422 516 799 1095 1239 972 1121 1386 1340 1276 1257 1148 1301 1328 1333 1352 1438 1626 1504 1621 1601 1595 1499 1625 2093 1581 1512 978 837 906 904 904 1165 1193 1340 1185 1053 1074 1045 905 789 740 736 738 747 743 742 749 763 764 773 785 890 848 872 900 869 898 998 967 860 826 832 821 991 1054 981 979 1031 1188 1140 1121 1215 1376 1312 1414 1449 1325 1219 1372 1464 1309 1218 1213 1064 992 648 564 641 776 834 704 642 614 511 504 556 634 634 628 810 757 671 663 798 840 647 599 588 573 528 463 506 603 730 826 978 887 805 628 564 592 678 701 607 579 603 600 531 620 683 373 187 395 495 436 432 470 507 559 584 545 603 672 759 854 990 1040 1155 1195 1182 1020 780 606 649 922 1232 1359 1308 1239 1082 1161 1222 1295 1465 1447 1604 1593 1411 1246 1426 1475 1501 1635 1583 1528 1535 1720 1570 1564 1538 1520 1520 1522 1528 1600 1691 2004 2065 1695 1219 1088 1032 1055 1109 1060 1101 1154 1245 1489 1580 1848 1897 1993 2059 2208 2083 2114 2157 2104 2070 2030 2025 2044 2000 1920 1964 1941 1921 1901 1882 1872 1827 1831 1812 1783 1788 1813 1833 1849 1828 1828 1804 1770 1756 1751 1711 1669 1611 1630 1630 1603 1597 1632 1646 1649 1660 1679 1710 1747 1724 1726 1751 1745 1756 1767 1767 1782 1828 1839 1906 1970 2027 2055 2072 2129 2124 2077 2121 2156 2136 2133 2156 2216 2250 2254 2261 2271 2283 2319 2264 2225 2224 2212 2195 2193 2190 2175 2314 2376 2321 2307 2376 2298 2253 2267 2282 2194 2171 1913 2003 2050 2001 2031 2218 2090 1888 1830 1883 1701 1678 1643 1584 1520 1547 1580 1498 1463 1502 1526 1552 1590 1675 1787 2162 2536 2237 2107 2032 1974 1944 1906 1892 1873 1860 1856 1858 1856 1860 1879 1909 1925 1979 1969 1940 1921 1897 1892 1876 1882 1903 1921 1879 1826 1797 1765 1725 1682 1649 1632 1617 1615 1616 1585 1546 1519 1495 1475 1456 1449 1423 1370 1309 1334 1303 1356 1374 1381 1402 1416 1431 1414 1503 1509 1483 1452 1430 1431 1432 1426 1416 1425 1442 1442 1414 1418 1433 1426 1409 1389 1368 1350 1341 1324 1322 1323 1315 1310 1302 1276 1260 1244 1239 1224 1219 1220 1214 1208 1198 1192 1185 1178 1171 1171 1162 1151 1157 1162 1155 1141 1131 1119 1108 1098 1090 1083 1081 1073 1058 1049 1041 1040 1025 1020 1018 1006 990 832 720 695 694 725 742 713 701 677 654 639 646 645 643 650 643 634 617 622 624 602 579 575 567 547 561 567 552 528 526 502 506 500 501 495 488 492 490 483 466 455 440 434 434 440 427 418 416 426 421 408 418 437 430 409 420 416 414 418 413 425 430 427 439 410 419 453 427 411 368 360 341 363 376 362 336 336 361 379 362 373 398 400 390 379 374 365 366 364 345 347 336 369 328 322 335 312 324 303 272 269 290 307 323 351 361 358 344 369 385 400 324 277 245 231 213 221 229 212 220 223 209 201 204 200 206 207 210 191 214 214 262 280 238 223 261 308 293 227 235 331 195 187 182 188 277 291 291 282 229 198 188 198 213 214 220 222 229 243 304 393 496 454 396 477 420 448 402 571 575 440 466 392 351 388 412 449 560 498 463 332 337 274 233 219 235 212 193 192 211 195 188 198 189 199 193 221 249 248 268 264 231 197 162 183 149 154 168 137 124 147 153 144 116 90 92 86 105 87 73 70 69 69 69 70 68 69 65 61 66 63 62 64 67 65 62 64 65 64 58 49 50 53 55 55 54 55 56 54 54 54 60 63 61 62 93 89 53 51 52 56 53 57 56 54 54 53 62 74 70 74 85 83 87 95 97 98 106 108 120 131 140 156 159 141 135 125 129 107 114 132 154 150 160 168 154 158 152 160 169 181 180 186 168 139 136 151 151 135 129 131 150 147 153 155 163 164 171 162 197 214 218 233 194 194 198 179 230 159 159 181 185 178 168 176 190 174 176 180 180 183 177 170 169 169 181 181 181 181 193 188 182 200 191
0 0 0 0 0 0 0 0 0 0 0 0 0 0 0 0 0 61 198 215 161 106 67 113 159 140 132 143 186 186 194 227 251 376 379 385 544 695 927 1189 990 1156 945 1005 1160 1456 1466 1411 1584 1845 1940 1904 1861 1611 1558 1499 1727 1568 1594 1587 1475 1134 795 880 720 839 976 831 1057 1092 1000 1161 1090 1044 988 812 795 782 766 764 775 789 833 816 805 817 836 878 882 878 869 896 875 841 849 853 876 1069 1016 945 1000 1133 1276 1208 992 1060 1272 1213 1258 1247 1269 1186 1257 1300 1199 1135 1055 1080 1001 700 638 690 770 936 753 502 413 388 382 420 456 432 425 412 593 654 526 483 656 610 495 446 412 398 439 561 710 889 966 982 890 782 593 537 651 702 621 547 515 531 576 640 758 495 405 209 245 309 399 580 641 621 642 613 577 606 651 718 794 889 954 1014 1054 1177 1277 962 598 603 818 941 1039 1061 916 887 1101 1063 1203 1310 1504 1358 1296 1054 1054 1332 1429 1469 1507 1535 1530 1571 1785 1786 1643 1589 1536 1558 1524 1516 1534 1602 1931 1889 1861 1604 1199 1052 984 1029 1042 1092 1164 1267 1636 1722 1829 1909 1947 2099 2093 2072 2107 2085 2082 2070 2072 2068 2015 1975 2005 1998 2013 1988 1952 1931 1881 1886 1889 1883 1831 1825 1823 1798 1795 1793 1810 1817 1795 1776 1765 1728 1688 1661 1690 1667 1645 1642 1645 1645 1645 1664 1663 1700 1709 1729 1710 1709 1710 1721 1755 1761 1768 1822 1833 1876 1894 1918 1949 1971 2054 2114 2180 2202 2239 2192 2168 2155 2173 2221 2233 2273 2317 2259 2260 2248 2245 2220 2198 2194 2194 2197 2196 2287 2382 2366 2355 2376 2394 2281 2194 2152 2108 2202 2186 2146 2039 1905 2027 2167 1908 1833 1806 1743 1652 1638 1631 1581 1507 1543 1574 1488 1462 1506 1529 1553 1587 1681 2027 2641 2531 2210 2077 2013 1959 1927 1901 1890 1885 1859 1854 1857 1857 1868 1909 1948 1970 1950 1957 1951 1933 1908 1886 1863 1879 1892 1920 1880 1826 1822 1777 1728 1676 1649 1620 1616 1614 1583 1554 1534 1509 1493 1473 1445 1411 1401 1378 1354 1314 1296 1344 1345 1361 1371 1384 1381 1401 1488 1499 1481 1462 1447 1423 1400 1399 1396 1411 1422 1410 1399 1400 1403 1410 1415 1408 1403 1388 1375 1355 1346 1339 1319 1300 1282 1266 1255 1250 1237 1237 1231 1230 1226 1219 1211 1206 1192 1189 1182 1179 1167 1147 1143 1150 1135 1144 1131 1124 1114 1104 1093 1078 1073 1066 1056 1045 1039 1031 1020 1018 1012 999 886 855 804 746 700 671 687 681 669 651 639 630 627 623 624 628 614 609 591 604 599 578 579 575 550 560 524 526 535 531 503 492 486 496 517 505 490 476 478 477 463 451 435 438 433 425 416 410 408 420 409 397 409 413 411 402 405 404 417 406 397 405 411 408 395 397 383 381 381 369 348 350 332 359 375 358 345 334 339 360 352 363 388 374 376 367 372 371 337 334 362 343 312 327 327 306 323 305 314 303 275 263 279 297 305 333 349 362 384 385 357 355 359 315 249 221 214 209 221 219 212 221 231 209 190 191 195 206 213 193 218 333 246 276 255 281 315 269 241 322 253 290 323 374 349 183 183 189 187 188 207 237 254 308 403 530 512 552 502 423 344 362 373 418 459 441 376 318 322 328 388 555 345 309 311 339 353 327 332 398 407 316 242 228 217 215 208 190 189 182 180 179 180 181 180 180 198 227 232 265 231 241 189 165 165 153 135 129 147 138 109 145 132 127 110 110 95 110 98 78 73 69 69 69 69 70 67 68 65 64 62 60 61 61 62 65 64 63 61 60 62 47 46 51 53 53 54 53 54 56 54 54 54 61 65 59 69 94 65 49 52 53 57 56 56 56 54 53 60 80 87 94 78 94 77 85 90 91 119 117 145 152 150 160 122 125 117 121 123 120 123 119 134 139 155 137 135 133 142 156 151 182 173 185 156 125 121 124 146 128 120 130 120 142 134 157 179 164 167 164 193 213 222 240 213 226 234 203 188 204 163 214 194 170 193 214 188 187 215 214 192 189 181 196 180 170 172 179 173 173 183 176 177 176 176
0 0 0 0 0 0 0 0 0 0 0 0 0 0 0 0 0 164 327 342 397 262 136 235 328 334 200 333 234 160 190 238 228 237 280 344 601 546 786 887 700 719 873 1034 1321 1581 1510 1544 1468 1337 1203 1208 1159 1348 1284 1241 913 991 1033 1131 1199 772 912 911 687 722 962 848 891 721 885 939 1091 1179 1168 955 880 812 792 792 791 799 815 835 847 853 877 894 909 911 906 903 891 877 877 882 829 902 911 948 967 1095 1048 1270 1044 937 994 1036 1160 1085 1075 1168 1180 1073 1012 961 883 906 1111 901 997 967 886 818 732 513 399 335 293 276 247 236 257 252 270 332 426 330 285 277 428 373 349 369 446 605 1107 1215 1093 968 828 702 583 514 521 649 541 487 464 479 523 606 774 533 422 249 153 214 358 530 943 1000 931 743 637 607 638 695 763 827 890 966 971 939 926 779 580 669 678 908 841 817 749 917 1100 1060 1216 1210 1045 1213 1165 963 1270 1339 1447 1504 1493 1437 1459 1584 1794 1773 1679 1645 1599 1710 1532 1494 1461 1538 1691 1620 1722 1581 1388 1239 1065 976 1074 1153 1194 1307 1638 1778 1795 1868 1813 1995 2071 2054 2086 2166 2188 2216 2126 2064 2115 2087 2054 2067 2068 2027 2013 1944 1969 1947 1943 1915 1888 1841 1831 1821 1801 1793 1803 1811 1779 1802 1769 1737 1697 1699 1717 1702 1665 1672 1684 1653 1658 1664 1706 1705 1706 1727 1769 1735 1713 1725 1747 1766 1766 1768 1806 1825 1842 1940 1923 1942 1959 2010 2029 2030 2152 2192 2148 2074 2119 2080 2097 2167 2315 2258 2292 2271 2224 2212 2195 2192 2192 2242 2209 2259 2321 2393 2390 2416 2417 2428 2266 2067 2023 2158 2152 1923 1849 1880 1986 2023 1898 1852 1770 1708 1651 1627 1588 1572 1517 1502 1572 1481 1461 1505 1534 1552 1585 1679 1940 2727 2394 2234 2129 2055 1979 1951 1924 1909 1886 1859 1853 1853 1861 1903 1960 1979 1975 1934 1950 1927 1920 1911 1889 1878 1895 1926 1885 1843 1813 1826 1791 1745 1689 1670 1644 1622 1640 1570 1514 1507 1463 1458 1441 1441 1419 1385 1354 1321 1283 1331 1333 1315 1321 1332 1331 1362 1407 1480 1476 1448 1418 1421 1423 1403 1390 1382 1410 1406 1399 1400 1396 1388 1369 1350 1358 1365 1359 1354 1347 1338 1327 1305 1291 1288 1278 1279 1277 1266 1258 1251 1248 1242 1228 1220 1215 1202 1202 1195 1187 1177 1156 1154 1143 1142 1139 1124 1116 1109 1100 1086 1075 1067 1054 1049 1037 1029 1021 1012 1008 996 993 848 963 936 841 793 714 724 704 710 679 686 695 671 642 605 612 607 585 576 563 566 549 547 561 559 540 528 505 509 515 512 492 476 476 475 475 492 476 464 468 467 456 451 451 456 440 414 405 404 416 408 398 400 393 392 393 393 411 415 405 386 397 394 389 375 372 365 360 365 362 338 336 328 341 353 345 338 333 347 344 335 376 386 370 359 353 345 356 352 328 348 329 317 300 304 315 296 291 298 278 279 246 276 285 306 321 332 347 386 383 370 365 348 340 270 233 231 216 201 211 203 213 214 206 198 185 189 208 216 211 274 268 244 269 301 242 268 285 240 232 379 409 425 321 214 183 384 418 388 386 417 456 453 488 356 428 476 439 470 444 366 405 471 563 554 521 454 313 282 304 323 335 327 304 304 280 274 270 258 253 243 262 283 273 266 245 228 197 187 183 180 188 178 177 176 200 182 181 205 258 257 213 192 187 166 142 145 128 118 100 103 129 128 120 129 113 95 87 82 76 72 68 70 70 69 70 68 67 65 63 61 60 59 59 60 66 65 62 61 60 61 58 45 47 50 52 53 51 52 55 58 56 53 56 62 62 62 74 94 54 54 56 55 56 55 56 53 53 70 81 90 89 97 89 90 88 99 116 111 121 138 138 112 139 118 109 115 104 101 114 124 132 128 154 139 139 122 122 125 137 142 179 189 176 153 123 117 131 137 124 114 121 119 127 133 154 177 172 159 199 203 206 203 228 233 249 267 222 199 213 191 200 187 182 208 212 205 188 217 223 221 238 219 219 188 183 177 170 170 183 176 182 174 173 182
0 0 0 0 0 0 0 0 0 0 0 0 0 0 0 0 0 0 1 59 334 319 265 261 276 313 294 239 270 299 541 749 766 615 435 319 338 386 454 542 559 536 718 882 1277 1566 1055 1201 1246 1324 1129 1083 1089 1256 1216 1364 1571 950 1057 1296 859 635 534 699 644 490 481 599 722 953 923 961 966 1024 1264 1324 1113 950 883 852 842 850 857 874 887 895 916 936 946 959 962 959 946 926 918 902 884 849 897 894 897 943 1028 1263 1207 947 902 921 971 997 1045 1141 1017 980 955 882 847 845 890 996 1080 1224 1101 898 763 638 518 416 341 242 211 212 212 213 210 194 219 237 221 233 271 327 340 473 491 626 885 1258 1327 1034 844 660 532 482 534 518 479 443 424 433 475 532 617 751 464 266 172 161 273 430 657 1052 1146 1006 725 614 610 660 710 759 806 1054 875 817 741 606 495 593 715 653 729 803 876 1117 1204 1219 1096 1052 907 844 878 973 1206 1327 1453 1574 1589 1378 1415 1644 1966 1848 1706 1670 1765 1674 1700 1521 1419 1459 1496 1445 1456 1434 1547 1487 1217 986 978 1037 1074 1229 1429 1419 1852 1864 1941 1997 2014 2052 2132 2135 2119 2108 2086 2147 2156 2149 2111 2128 2118 2064 2055 2056 2029 1999 2007 1971 1938 1892 1887 1853 1829 1820 1831 1887 1817 1827 1781 1755 1732 1734 1740 1730 1751 1745 1731 1708 1706 1706 1760 1762 1734 1872 1820 1779 1764 1755 1765 1780 1804 1805 1799 1817 1830 1855 1878 1943 1984 1950 1955 1956 1985 2023 2032 2016 2019 2035 2071 2114 2208 2245 2273 2260 2234 2208 2194 2191 2197 2248 2247 2313 2342 2372 2257 2221 2274 2265 2102 2059 1997 2080 1887 1835 1824 1885 1977 1992 1897 1959 1797 1709 1650 1619 1582 1543 1517 1483 1559 1459 1467 1508 1537 1556 1580 1642 1865 2215 2158 2145 2082 2031 2006 1958 1942 1913 1898 1859 1854 1855 1873 1948 1981 1972 1960 1951 1949 1938 1918 1908 1942 1953 1921 1899 1864 1825 1799 1799 1815 1771 1723 1678 1648 1629 1617 1616 1567 1531 1550 1520 1498 1473 1461 1425 1392 1356 1269 1264 1260 1278 1296 1291 1321 1343 1420 1437 1425 1370 1346 1365 1400 1371 1373 1382 1389 1393 1377 1387 1397 1391 1376 1371 1355 1338 1320 1314 1318 1315 1301 1284 1272 1262 1245 1245 1245 1235 1238 1235 1230 1225 1213 1217 1214 1203 1199 1189 1184 1174 1159 1160 1148 1141 1141 1122 1111 1095 1093 1082 1071 1065 1056 1037 1026 1020 1017 1011 982 933 953 1005 1001 984 980 910 869 737 757 732 728 718 666 629 614 601 589 585 576 578 592 580 573 562 534 529 514 519 535 520 521 501 496 491 498 517 496 462 480 467 455 460 456 438 424 419 421 419 400 400 407 404 394 386 391 404 409 418 401 391 393 375 380 392 376 369 362 352 352 355 351 343 329 321 335 341 339 327 327 334 333 341 355 365 362 371 351 331 332 361 325 322 326 305 302 284 286 281 277 273 263 259 252 266 268 296 318 306 358 364 378 352 348 344 340 333 304 250 220 207 193 191 203 219 198 183 193 205 211 194 244 251 278 298 238 230 248 222 299 333 340 301 337 180 232 262 237 282 312 429 443 462 370 342 367 344 323 310 337 319 300 318 353 389 405 338 382 317 286 280 305 360 386 334 308 304 288 275 280 288 261 283 287 252 246 246 242 232 210 190 187 211 293 203 221 248 207 165 149 206 196 234 262 240 234 203 164 141 119 119 129 89 93 99 138 109 109 114 91 80 76 72 70 66 68 67 68 69 66 65 61 60 60 59 59 60 61 65 62 62 62 60 60 48 45 45 50 50 50 53 53 55 58 58 52 58 55 58 62 87 62 50 56 52 55 54 54 53 52 75 94 93 107 93 91 96 94 93 107 116 126 116 117 107 81 73 73 75 81 81 79 106 106 122 130 123 121 117 118 120 124 144 167 151 141 131 122 115 126 130 121 107 113 142 127 147 153 169 177 188 164 167 187 177 191 215 215 252 269 252 231 197 185 178 179 191 193 188 200 192 208 213 219 218 206 202 191 170 182 185 185 182 179 188 203 185
0 0 0 0 0 0 0 0 0 0 0 0 0 0 0 0 0 0 0 0 28 239 253 365 280 256 202 413 525 301 194 243 396 446 556 723 670 653 843 905 775 627 644 699 774 1107 931 641 576 619 1065 923 1297 1518 1655 1415 1241 642 824 1014 879 655 462 551 614 406 451 477 591 603 735 737 811 930 1017 972 1010 1037 1125 1028 1006 962 972 965 982 1010 1027 1027 1029 1038 1044 1023 1003 981 964 947 916 885 862 905 899 969 1316 1100 927 899 899 899 954 1010 998 1113 982 895 916 988 904 945 874 901 892 939 1065 1094 1069 830 662 569 487 441 266 211 194 211 208 194 206 215 216 223 246 280 481 555 449 559 717 992 1108 1144 836 587 473 431 479 510 466 442 418 412 421 451 462 434 357 251 170 137 222 351 484 696 724 684 650 764 586 609 642 672 717 800 793 720 613 509 527 738 1003 796 726 867 970 1028 1024 952 963 1061 828 771 1025 1062 1108 1154 1298 1399 1604 1448 1371 1562 1695 2029 1842 1810 1960 1786 1934 1570 1414 1477 1491 1357 1332 1330 1382 1463 1588 1329 969 1003 1050 1292 1580 1834 1806 1872 1932 2113 2084 2139 2191 2179 2177 2166 2181 2197 2206 2223 2181 2193 2145 2136 2038 2109 2062 2063 2025 2012 1976 1949 1921 1888 1881 1855 1847 1837 1833 1816 1769 1747 1716 1756 1765 1782 1773 1821 1794 1778 1767 1755 1768 1793 1799 1893 1865 1783 1783 1767 1767 1825 1876 1854 1830 1828 1848 1867 1879 1897 1909 1907 1947 1931 1949 1956 1993 2013 2019 2070 2096 2096 2151 2198 2286 2300 2254 2231 2211 2204 2219 2278 2293 2385 2428 2377 2243 2184 2191 2139 2001 1969 1961 2161 1913 1886 1831 1812 1898 1961 1864 1839 1774 1761 1703 1649 1588 1538 1503 1479 1535 1448 1484 1504 1545 1568 1594 1648 1823 1988 1922 1981 1960 1950 1996 2005 1967 1946 1959 1951 1897 1887 1883 1911 1948 1934 1929 1944 1948 1868 1848 1880 1922 1987 1963 1916 1873 1837 1786 1765 1798 1790 1753 1701 1663 1646 1645 1642 1612 1575 1540 1518 1488 1463 1440 1428 1397 1385 1372 1344 1296 1252 1266 1277 1297 1332 1377 1379 1356 1316 1316 1325 1342 1374 1375 1377 1371 1361 1379 1383 1377 1371 1372 1372 1369 1359 1345 1336 1315 1295 1281 1260 1252 1252 1242 1231 1225 1220 1223 1221 1217 1207 1196 1191 1184 1176 1171 1164 1157 1150 1144 1137 1133 1134 1127 1110 1099 1091 1082 1071 1064 1056 1046 1038 1024 1008 1000 987 984 976 986 999 994 995 988 976 968 877 792 747 712 669 677 655 635 660 638 627 617 616 631 600 585 565 552 546 533 551 587 540 545 539 553 537 532 548 503 486 454 464 443 440 441 447 430 422 409 396 406 392 405 395 395 382 401 409 420 417 392 371 380 367 368 375 366 369 361 348 341 349 340 337 333 321 323 338 331 326 323 328 331 352 344 344 341 362 353 341 328 318 322 303 312 291 293 278 285 299 305 317 327 302 260 255 275 293 299 322 360 368 362 359 357 334 329 313 321 293 242 241 211 197 203 202 186 180 194 229 187 199 229 251 258 239 216 278 269 258 304 267 268 300 182 272 312 290 321 302 258 295 281 229 273 354 396 367 379 436 495 469 415 243 257 246 243 259 260 270 286 296 331 376 400 447 417 354 343 358 351 333 294 295 297 268 266 270 286 321 320 254 283 278 269 257 214 185 156 139 132 136 250 175 140 144 192 192 194 197 159 144 105 83 66 101 114 118 91 96 92 92 89 76 70 66 66 66 66 65 65 65 62 60 59 57 57 57 59 63 62 60 59 61 58 59 45 44 48 50 50 50 51 54 54 54 48 50 51 53 54 58 50 53 52 53 53 52 49 51 50 57 91 92 107 105 106 101 104 97 117 123 113 100 78 72 77 111 115 117 105 116 109 95 78 108 124 115 118 114 114 142 152 142 128 125 122 122 118 118 116 120 112 107 112 123 119 143 153 164 155 192 200 174 214 224 208 217 196 229 255 231 241 207 190 193 183 184 197 189 187 195 205 200 199 188 207 183 185 180 209 233 221 216 198 188 221 296
0 0 0 0 0 0 0 0 0 0 0 0 0 0 0 0 0 0 0 0 0 29 38 27 16 4 5 1 2 2 29 17 36 95 97 92 67 84 147 283 385 445 573 757 831 850 838 833 466 262 308 300 511 782 889 973 1361 602 424 906 616 773 381 537 458 385 411 415 449 567 567 643 713 800 844 930 959 1134 1287 1208 1327 1240 1191 1144 1193 1243 1233 1214 1159 1151 1153 1115 1100 1062 1035 1005 963 925 863 911 921 943 943 916 961 900 899 904 922 989 978 909 908 914 839 901 888 875 722 727 909 850 854 875 1022 996 902 757 587 625 511 269 220 213 207 201 200 219 219 216 228 231 370 343 382 475 686 1051 1076 765 658 461 412 425 472 550 533 478 427 396 368 376 369 335 291 237 176 137 146 237 350 466 510 596 584 602 527 648 626 615 672 854 774 665 601 506 597 796 959 1072 939 923 1016 958 849 949 1023 814 755 836 966 1204 1216 1136 1255 1221 1394 1328 1341 1465 1626 1751 1708 1848 2142 1987 1775 1593 1483 1346 1335 1298 1260 1293 1398 1565 1657 1624 1094 945 1087 1243 1559 1742 1755 1574 1892 2108 2180 2315 2247 2247 2230 2248 2249 2257 2251 2253 2239 2245 2194 2192 2090 2133 2121 2086 2058 2018 1974 1983 1950 1931 1905 1893 1877 1833 1827 1809 1771 1766 1749 1765 1784 1828 1836 1887 1903 1851 1828 1863 1848 1897 1903 1937 1834 1821 1826 1774 1780 1850 1902 1999 2009 1958 1926 1904 1929 1923 1997 1969 1983 1953 1953 1987 2004 2090 2181 2107 2170 2184 2231 2358 2277 2322 2294 2259 2251 2233 2241 2257 2320 2372 2327 2240 2222 2150 2128 2050 2017 1972 1954 1950 1926 1841 1857 1783 1784 1917 1887 1832 1847 1943 1979 1807 1645 1563 1499 1460 1502 1443 1483 1524 1555 1579 1597 1633 1741 1788 1815 1881 1883 1950 2097 2070 2015 2037 2037 2014 2019 2029 1917 1913 1901 1914 1905 1967 1917 1856 1853 1860 1908 2010 1966 1887 1867 1831 1768 1806 1803 1783 1756 1715 1681 1672 1660 1654 1598 1567 1539 1514 1485 1461 1440 1419 1399 1390 1382 1373 1338 1283 1242 1244 1258 1271 1267 1284 1289 1280 1286 1322 1342 1346 1357 1352 1352 1370 1372 1365 1360 1357 1354 1354 1343 1339 1327 1322 1314 1299 1288 1277 1269 1260 1244 1240 1236 1228 1220 1216 1205 1198 1188 1188 1175 1160 1154 1149 1145 1135 1134 1130 1123 1123 1122 1111 1101 1091 1079 1071 1066 1059 1048 1034 1025 1014 1007 1004 1000 993 992 994 989 992 987 977 974 905 777 729 698 682 702 693 672 682 665 644 669 664 632 632 583 570 546 548 555 573 584 580 576 548 532 536 535 530 511 488 465 448 458 454 433 451 452 440 432 408 393 386 392 398 391 377 390 398 412 417 390 365 353 352 362 358 362 357 357 345 337 338 328 324 324 323 308 329 333 318 311 307 337 347 348 332 332 333 337 325 342 335 309 302 296 309 299 299 319 350 374 399 396 358 301 244 291 280 295 325 342 336 350 335 339 337 309 299 300 291 272 220 199 191 194 221 196 183 178 203 189 183 218 237 237 233 262 266 247 228 300 224 284 165 323 225 248 298 265 312 332 278 238 286 316 360 362 296 307 332 363 447 426 345 215 216 229 230 263 276 288 290 318 345 388 397 447 404 452 458 452 380 408 369 346 303 257 230 248 278 303 289 282 240 258 205 167 164 161 149 147 119 143 129 127 110 106 135 150 138 118 113 92 67 63 87 90 102 102 86 92 93 86 87 88 73 65 66 64 64 63 62 60 57 57 56 57 57 59 61 63 62 60 59 57 59 59 45 44 45 48 49 49 54 51 46 49 50 51 52 53 53 48 53 52 53 51 51 50 50 49 51 57 91 92 94 90 90 103 96 103 94 79 72 77 95 112 105 130 128 141 142 123 106 107 90 98 107 109 110 119 147 150 132 117 116 114 110 119 117 103 105 111 120 104 126 134 147 150 161 178 170 185 203 185 197 223 241 248 217 211 220 236 255 248 241 196 191 197 208 207 199 197 192 184 192 187 186 180 202 207 214 212 192 186 180 274 329
0 0 0 0 0 0 0 0 0 0 0 0 0 0 0 0 0 0 0 0 0 0 0 0 0 0 0 0 0 0 0 0 0 0 1 8 6 17 76 54 20 10 29 78 151 319 536 272 205 208 335 527 630 582 339 690 600 312 257 445 328 273 325 419 328 352 368 365 432 467 505 703 863 968 899 1004 1116 1206 1371 1442 1428 1555 1705 1432 1364 1595 1629 1646 1484 1381 1302 1235 1207 1146 1106 1075 1016 966 898 930 1132 1097 1128 1014 968 992 982 970 973 989 974 932 896 865 857 884 808 1077 815 725 762 992 897 771 757 836 776 752 612 503 461 365 361 446 354 211 202 222 275 235 201 193 211 250 301 396 525 762 822 635 498 400 367 437 518 642 782 595 462 404 366 365 335 311 297 296 255 268 196 156 271 315 386 591 598 502 517 671 594 620 710 771 794 760 807 749 483 676 795 943 1112 1228 1055 988 821 776 799 744 965 1139 1239 1311 1218 1242 1294 1260 1219 1235 1321 1385 1499 1574 1772 2043 2215 2092 2013 1631 1398 1377 1257 1195 1196 1226 1312 1354 1486 1648 1362 972 1127 1425 1324 1461 1445 1815 1897 1939 2181 1821 2021 1844 1880 2285 2340 2310 2307 2317 2313 2266 2258 2193 2150 2186 2136 2128 2078 2033 2011 2009 1975 1985 1953 1949 1902 1892 1849 1838 1825 1779 1771 1768 1784 1833 1869 1917 1958 1967 1969 1949 1952 1961 1949 1909 1866 1887 1831 1874 1862 1860 1987 2007 2023 2057 2046 2010 1952 1956 2011 2012 2019 1998 2060 2041 2060 2017 2141 2221 2136 2220 2283 2334 2310 2291 2305 2313 2325 2256 2258 2276 2316 2332 2269 2217 2158 2101 2126 2322 2123 2034 2017 1925 1882 1846 1841 1882 1806 1762 1804 1839 1880 1955 2369 1875 1706 1592 1519 1458 1446 1451 1521 1544 1559 1587 1640 1758 1818 1802 1826 1885 1915 2007 2160 2081 2032 2037 1983 2003 2007 2017 2003 1931 1915 1899 1919 1938 1938 1904 1891 1900 1918 1945 1928 1865 1850 1803 1758 1773 1788 1763 1737 1717 1704 1698 1656 1620 1605 1563 1530 1503 1478 1452 1435 1412 1401 1380 1369 1358 1345 1294 1248 1219 1235 1234 1231 1255 1293 1282 1280 1296 1302 1308 1327 1334 1336 1336 1344 1345 1338 1332 1333 1333 1328 1325 1319 1309 1296 1283 1274 1269 1261 1259 1251 1251 1239 1230 1234 1230 1224 1218 1191 1186 1166 1154 1146 1145 1136 1133 1124 1117 1114 1114 1112 1108 1100 1089 1080 1079 1068 1063 1047 1037 1023 1017 1012 1007 1000 996 990 989 988 990 982 978 958 922 818 776 768 745 732 698 664 647 653 650 629 654 628 609 621 575 568 577 578 585 578 569 543 528 512 501 502 500 490 483 469 464 446 456 443 428 425 417 424 426 402 399 389 383 392 372 381 402 408 411 394 363 352 340 346 342 344 338 351 350 342 329 317 315 327 321 302 320 320 318 306 320 328 336 336 323 330 340 308 307 327 338 349 335 334 321 310 311 306 337 376 395 396 382 349 321 254 260 295 290 325 320 327 335 316 306 309 289 281 250 229 203 194 178 180 201 199 182 181 185 203 193 199 229 221 243 236 280 204 216 266 278 165 282 215 238 199 287 311 320 267 283 231 264 324 291 283 291 271 284 326 329 357 299 196 238 263 275 298 303 305 309 336 361 322 370 379 421 455 490 494 468 405 445 423 334 308 281 237 217 289 328 264 234 214 221 208 186 168 157 153 160 120 130 166 147 157 116 101 100 91 89 85 61 69 89 91 85 98 88 88 111 102 105 115 72 64 66 63 64 62 63 61 58 57 57 55 56 57 60 59 61 61 57 60 56 57 57 44 45 45 47 49 47 47 48 49 50 51 53 53 53 48 50 50 52 51 48 48 48 49 50 51 56 83 93 80 94 96 90 84 72 76 77 115 90 115 129 125 157 156 135 131 114 132 127 112 101 110 115 126 142 136 142 106 106 102 99 116 132 124 113 93 106 106 142 149 164 147 156 167 186 199 186 203 225 212 239 263 279 259 263 288 295 305 311 270 208 230 239 287 225 206 200 197 204 183 178 174 188 189 196 229 258 205 197 221 219
0 0 0 0 0 0 0 0 0 0 0 0 0 0 0 0 0 0 0 0 0 0 0 0 0 0 0 0 0 0 0 0 0 0 0 0 0 0 0 0 0 0 0 0 2 84 379 335 174 226 262 365 275 251 202 169 131 116 170 240 345 484 654 440 502 588 488 418 463 629 649 903 1134 1163 1335 1587 1717 1534 1595 1795 1693 1725 1854 2217 1821 2080 2120 2140 2093 1792 1536 1342 1346 1268 1190 1133 1057 998 916 1131 1353 1363 1617 1791 1401 1298 1199 1190 1231 1184 1107 1040 966 902 891 908 883 916 778 745 734 790 788 736 639 697 932 809 905 713 991 692 603 823 459 265 209 226 360 248 190 182 185 207 255 344 414 642 706 483 405 351 348 487 584 692 862 794 544 439 401 379 377 385 382 399 400 382 397 304 203 170 253 353 564 544 431 481 502 557 621 667 814 783 890 714 630 440 657 765 912 897 907 960 826 658 627 688 915 953 1104 1156 1138 1254 1322 1529 1300 1263 1277 1351 1404 1375 1558 1791 1909 1848 1700 1583 1412 1313 1224 1157 1152 1199 1264 1301 1395 1565 1798 1373 957 1082 1166 1482 1588 1799 1905 1666 1893 1690 1703 1660 1702 1811 1971 2009 2043 2339 2376 2319 2294 2222 2246 2247 2199 2159 2113 2070 2052 2048 2020 2017 2002 2010 1927 1937 1905 1891 1851 1800 1821 1804 1809 1866 1911 1959 1980 2014 2016 1999 1995 1999 1996 2007 1944 1918 1851 1862 1971 1958 2035 2038 2066 2082 2109 2051 2017 2026 2012 2028 2081 2031 2075 2100 2153 2135 2162 2080 2148 2205 2240 2245 2255 2245 2253 2286 2336 2308 2309 2330 2329 2322 2299 2253 2227 2207 2332 2254 2204 2218 2090 1993 1953 1942 1922 1909 1910 1831 1753 1703 1754 1820 1898 1736 1642 1588 1532 1474 1440 1490 1544 1580 1593 1641 1885 2002 1855 1892 1891 1917 2042 2099 2130 2074 2042 2030 1962 1966 1957 2008 1968 1948 1953 1925 1939 1949 1953 1932 1924 1957 1972 1980 1913 1855 1819 1793 1773 1767 1780 1742 1708 1704 1703 1696 1659 1608 1570 1563 1535 1514 1479 1452 1437 1411 1385 1369 1347 1348 1321 1275 1241 1217 1217 1232 1245 1256 1300 1292 1277 1278 1287 1281 1284 1291 1298 1312 1322 1314 1326 1327 1323 1323 1315 1303 1294 1294 1277 1272 1267 1263 1255 1249 1237 1232 1224 1217 1220 1222 1223 1216 1202 1190 1163 1152 1141 1143 1137 1129 1121 1117 1114 1109 1106 1096 1090 1084 1082 1079 1070 1064 1055 1041 1027 1019 1012 1005 1000 996 992 990 987 990 979 961 883 837 799 773 756 740 720 707 667 640 643 611 593 635 607 594 607 564 574 561 547 562 551 535 545 522 518 509 501 490 485 483 468 458 458 446 431 432 431 442 425 407 398 418 425 398 370 365 383 398 402 385 388 369 357 344 335 332 337 334 335 333 323 329 321 308 319 334 304 294 317 317 301 319 308 330 326 306 335 327 305 288 300 310 302 324 329 300 283 280 293 294 321 342 361 348 360 380 345 242 296 286 321 344 309 302 300 285 296 281 275 260 226 210 199 192 166 173 198 192 185 181 165 175 191 190 206 191 217 244 180 236 222 240 171 274 263 169 191 195 250 293 293 242 193 278 274 285 313 267 231 229 239 296 258 215 218 242 244 259 311 300 308 335 340 306 290 300 322 353 382 430 522 411 370 337 384 309 268 278 281 230 215 230 231 225 192 211 195 194 234 284 265 247 231 235 219 170 141 100 88 97 107 88 78 63 60 85 87 81 91 90 83 86 84 96 110 82 66 65 65 62 63 61 61 59 57 57 54 53 55 55 59 58 60 57 59 57 56 56 58 49 44 45 46 47 48 48 50 50 45 47 46 50 52 51 50 52 51 47 49 46 49 49 49 49 56 79 89 92 78 71 84 93 94 97 98 122 115 130 151 137 140 159 141 132 135 123 111 106 108 115 124 141 149 128 117 94 94 92 105 129 126 111 121 95 105 134 152 155 132 151 170 186 208 211 210 204 208 245 261 264 278 301 281 290 303 279 273 239 255 234 261 264 252 223 240 234 192 180 187 183 184 217 276 302 316 267 225 236
0 0 0 0 0 0 0 0 0 0 0 0 0 0 0 0 0 0 0 0 0 0 0 0 0 0 0 0 0 0 0 0 0 0 0 0 0 0 0 0 0 0 0 0 0 0 13 178 323 101 239 396 212 115 102 315 378 349 355 388 481 565 580 508 617 791 837 647 520 585 656 873 708 997 1085 1311 1249 1116 1259 1408 1674 1943 1972 1508 2032 2247 2031 1848 2191 2270 1772 1327 1093 1106 1192 1136 1048 986 1006 1247 1243 1507 1736 1966 2180 2141 2077 1966 1761 1659 1390 1273 1258 1127 1052 1104 1062 932 868 870 796 756 722 624 605 617 884 848 976 891 773 976 751 990 658 382 268 242 319 318 209 182 182 195 281 329 306 438 694 356 304 289 328 452 713 942 931 892 630 475 423 432 462 470 551 534 744 863 643 451 421 323 153 265 313 406 388 373 394 448 497 543 627 734 607 599 566 540 433 592 643 625 562 573 686 929 685 720 859 968 1209 1052 1076 1292 1581 1637 1466 1349 1321 1350 1237 1302 1333 1477 1756 1686 1594 1357 1306 1257 1219 1160 1099 1196 1290 1343 1384 1555 1703 1813 1148 944 1041 1351 1669 1653 1781 1554 1606 1553 1485 1529 1660 1710 1779 1810 1758 1992 1983 2308 2304 2282 2317 2270 2288 2187 2125 2128 2085 2091 2084 2078 2070 2016 1967 1998 1968 1938 1899 1863 1840 1914 1883 1894 1904 1957 2010 2058 2021 2004 2008 2042 2124 2099 2011 1956 1943 1869 1835 1959 2013 2068 2081 2108 2128 2084 2128 2134 2070 2101 2092 2145 2166 2220 2242 2310 2261 2126 2134 2134 2149 2192 2193 2208 2253 2288 2316 2316 2370 2489 2452 2611 2453 2391 2328 2392 2394 2320 2328 2316 2309 2173 2058 2051 2007 2021 2094 2029 1829 1783 1718 1652 1634 1581 1530 1541 1507 1462 1462 1525 1579 1610 1637 1750 2064 2017 1908 1912 1959 2085 2094 2106 2066 2045 2037 2026 1951 1941 1948 1963 1951 1979 2018 1968 1967 1966 1963 1967 1975 1958 1933 1912 1879 1852 1824 1798 1785 1756 1736 1713 1688 1666 1648 1677 1638 1620 1536 1483 1474 1465 1447 1438 1416 1401 1384 1368 1333 1327 1305 1278 1237 1205 1206 1261 1272 1285 1308 1297 1319 1306 1310 1293 1286 1283 1277 1272 1270 1285 1292 1291 1295 1294 1292 1288 1278 1272 1271 1266 1261 1249 1246 1234 1228 1218 1205 1203 1201 1203 1200 1192 1182 1174 1157 1150 1146 1137 1131 1121 1116 1110 1109 1099 1094 1089 1082 1076 1074 1072 1064 1061 1053 1042 1029 1019 1013 1007 1001 994 994 991 986 985 975 926 828 784 778 771 759 734 705 686 669 665 620 607 582 593 577 557 573 551 552 547 544 528 531 519 533 541 513 499 503 496 482 473 464 458 460 454 452 445 448 430 420 414 412 429 429 415 366 361 375 392 391 365 377 373 353 346 340 324 325 322 324 324 312 316 330 311 299 319 312 291 308 324 304 304 303 317 310 299 308 298 293 281 292 279 297 309 316 328 312 310 274 271 277 285 284 284 276 289 294 245 249 286 291 315 286 281 275 267 264 261 249 252 234 229 200 187 179 164 186 192 192 189 180 180 176 160 181 172 202 204 161 223 209 158 223 171 152 167 178 265 252 249 232 188 192 236 282 347 335 283 221 227 266 293 276 241 245 320 305 335 360 393 387 337 334 302 245 284 275 275 278 314 306 300 268 288 277 324 344 333 282 289 221 183 183 206 179 216 193 167 182 197 191 200 173 145 135 112 102 83 89 108 135 93 79 68 59 78 89 79 87 79 73 90 96 108 105 87 70 62 63 62 62 60 60 57 57 54 54 53 57 60 57 56 58 56 53 52 56 56 56 49 44 43 45 46 48 48 49 49 45 51 52 53 51 52 52 51 50 50 48 47 46 48 48 48 52 59 58 61 85 92 90 96 113 124 118 121 139 137 128 122 136 146 139 144 146 124 114 112 119 119 128 150 151 131 120 99 89 90 110 122 130 110 110 105 95 125 150 143 131 150 155 183 199 199 201 228 241 226 253 273 260 285 267 284 273 286 253 232 229 206 255 241 245 259 269 254 210 218 226 242 199 228 265 313 312 279 283 300
0 0 0 0 0 0 0 0 0 0 0 0 0 0 0 0 0 0 0 0 0 0 0 0 0 0 0 0 0 0 0 0 0 0 0 0 0 0 0 0 0 0 0 0 0 0 0 0 72 84 166 169 84 70 212 184 190 174 185 198 235 285 343 341 448 564 465 455 371 347 364 440 613 666 799 797 1100 1409 1267 1377 1554 1473 1314 1127 1208 1701 1179 1968 2435 2449 1806 1476 1119 941 1420 1218 1059 1216 1368 1481 1453 1452 1780 1846 2031 2249 2261 2269 2237 1960 1892 1962 1633 1683 1463 1432 1252 1047 938 928 832 783 747 684 626 605 687 766 684 623 602 617 928 848 686 489 379 322 353 420 306 223 183 183 236 318 226 266 297 237 233 244 293 452 702 847 947 733 728 533 425 412 467 578 579 617 840 794 666 570 421 435 230 165 191 233 324 284 289 332 411 473 619 711 603 457 405 367 400 425 430 453 522 643 717 826 908 783 860 981 1118 1049 1031 1207 1402 1524 1408 1403 1476 1388 1244 1193 1233 1327 1590 1688 1531 1546 1204 1063 1147 1155 1131 1088 1202 1302 1474 1603 1781 1897 1449 941 854 1289 1317 1414 1399 1398 1529 1410 1512 1569 1562 1692 1729 1716 1661 1947 1879 1919 1989 2273 2275 2071 2257 2272 2298 2268 2184 2162 2106 2116 2121 2093 2026 2095 2015 2004 1942 1896 1902 1923 1935 1949 1976 1998 2025 2110 2118 2094 2072 2084 2196 2125 2068 2005 1947 1893 1892 1945 2018 2068 2115 2134 2146 2135 2160 2191 2137 2192 2190 2146 2180 2210 2254 2312 2306 2150 2215 2220 2151 2191 2194 2208 2245 2256 2311 2366 2382 2416 2452 2596 2645 2679 2542 2563 2539 2315 2223 2268 2416 2474 2310 2159 2115 2136 2250 2300 1954 1833 1765 1688 1685 1664 1620 1544 1475 1461 1469 1572 1584 1638 1681 1847 1901 1932 1904 1976 2056 1957 1980 2052 2020 2009 2025 1984 1953 1941 1936 1950 1983 2023 2079 2045 2036 2011 2015 2043 2053 1997 1955 1930 1875 1847 1814 1787 1766 1761 1737 1707 1668 1673 1618 1625 1619 1592 1591 1507 1474 1447 1440 1421 1409 1392 1356 1329 1299 1276 1249 1240 1223 1191 1224 1250 1275 1308 1333 1339 1360 1335 1353 1326 1302 1293 1288 1279 1269 1272 1271 1271 1267 1267 1265 1266 1258 1260 1260 1255 1247 1235 1220 1221 1215 1207 1194 1181 1187 1185 1181 1173 1163 1163 1154 1152 1143 1142 1136 1128 1118 1106 1100 1096 1085 1079 1076 1070 1063 1058 1055 1049 1043 1029 1021 1020 1012 1004 998 992 992 992 981 982 970 974 890 809 771 751 736 727 716 705 699 676 649 614 608 589 595 602 568 542 540 534 536 520 511 514 515 520 511 499 492 481 478 474 473 477 484 477 476 472 448 427 417 415 427 428 424 390 363 356 371 377 364 358 361 361 353 342 338 330 315 307 308 304 302 306 314 311 300 305 303 283 307 310 303 299 293 306 294 291 308 292 284 273 281 275 282 292 290 305 292 303 302 286 274 263 258 257 262 265 264 230 218 239 232 286 280 256 241 239 243 243 233 230 224 224 228 216 198 182 171 176 176 176 191 196 180 165 153 176 183 181 153 152 161 158 170 162 156 217 241 271 221 188 231 240 191 227 231 235 211 203 206 255 272 283 260 225 219 282 324 322 311 321 333 286 300 268 277 235 194 213 236 272 252 284 261 231 249 260 246 249 233 222 212 200 179 157 152 154 151 138 128 140 156 153 154 170 152 118 83 88 123 141 132 94 79 65 58 71 87 80 90 70 76 95 90 96 111 87 69 63 60 61 58 61 60 57 54 53 53 54 53 54 56 55 55 59 57 47 49 55 54 52 43 43 45 45 48 48 48 45 44 49 51 51 50 52 51 51 50 49 48 46 45 48 47 50 49 60 78 89 95 99 114 120 131 129 121 126 118 117 102 111 118 127 118 126 130 145 121 118 122 120 134 148 132 128 114 111 95 89 107 109 120 111 90 98 94 117 129 128 128 139 149 157 158 168 199 222 250 251 269 233 250 248 252 254 273 274 246 248 219 222 258 233 237 241 239 250 278 282 302 303 264 254 281 295 299 312 301 303
0 0 0 0 0 0 0 0 0 0 0 0 0 0 0 0 0 0 0 0 0 0 0 0 0 0 0 0 0 0 0 0 0 0 0 0 0 0 0 0 0 0 0 0 0 0 0 0 0 0 21 35 27 33 73 143 109 153 175 197 276 275 328 377 510 369 281 277 276 271 283 299 437 546 771 1040 827 1363 1275 1035 938 854 734 657 723 901 921 1269 1810 1935 2085 1464 1073 847 1038 1345 1458 1423 1555 1631 1649 1648 1971 2278 2248 2095 2065 2099 2127 2103 2070 2126 1775 1752 1637 1446 1273 1117 987 985 894 851 817 765 694 634 590 665 614 538 491 494 694 880 848 800 564 470 454 585 486 317 224 183 192 309 291 217 213 210 212 220 276 387 523 703 931 760 616 564 398 357 376 389 398 407 455 492 480 358 276 220 149 242 466 396 243 215 260 289 326 342 331 406 583 491 366 399 426 435 489 599 632 678 702 783 959 852 890 946 971 1025 1068 1050 1277 1673 1430 1511 1659 1433 1182 1096 1154 1260 1752 1862 1891 1436 1101 980 928 966 1073 1082 1173 1264 1413 1530 1306 1248 1264 1063 1043 1242 1091 1185 1173 1195 1258 1531 1532 1520 1445 1500 1662 1641 1497 1771 1727 1838 1913 2071 2151 1980 2036 2083 2224 2146 2052 2014 2020 2017 1962 2030 2073 2090 2045 2081 2008 1965 1952 1954 1967 2017 2049 2100 2121 2108 2178 2154 2148 2224 2379 2252 2178 2114 1981 1961 1984 1997 2020 2030 2162 2160 2201 2197 2251 2252 2228 2204 2254 2148 2163 2206 2279 2254 2344 2195 2271 2312 2249 2206 2195 2245 2300 2336 2308 2351 2343 2375 2383 2472 2570 2531 2420 2516 2426 2235 2167 2161 2197 2321 2374 2248 2233 2177 2240 2203 1980 1852 1774 1723 1747 1715 1640 1533 1430 1439 1540 1580 1626 1643 1716 1772 1843 1888 1838 1889 1901 1903 1865 1929 1957 2004 1991 1942 1951 1968 1956 1965 2010 2082 2217 2419 2139 2103 2112 2084 2050 2000 1956 1908 1861 1822 1796 1775 1765 1722 1684 1680 1644 1621 1582 1559 1585 1558 1584 1515 1418 1378 1345 1348 1369 1370 1357 1315 1291 1287 1256 1220 1198 1187 1218 1235 1267 1307 1347 1370 1360 1396 1398 1380 1326 1311 1295 1283 1271 1261 1260 1260 1258 1255 1244 1242 1239 1243 1244 1245 1233 1222 1209 1204 1198 1190 1175 1162 1162 1162 1160 1156 1147 1142 1132 1130 1127 1128 1129 1124 1118 1118 1110 1104 1095 1087 1080 1070 1061 1059 1050 1042 1033 1027 1019 1014 1008 1003 1000 989 986 981 975 974 963 970 896 824 814 778 763 738 706 680 659 647 669 638 597 630 638 610 579 553 550 555 546 535 528 523 513 492 493 488 484 481 496 489 493 491 477 464 453 445 435 426 430 434 411 395 390 386 365 354 366 359 357 352 347 351 350 340 350 334 336 332 328 324 318 311 304 296 295 295 301 279 300 298 296 307 298 289 292 286 311 294 281 272 277 272 291 275 294 303 275 276 294 292 291 287 273 268 250 241 232 241 226 211 221 220 248 234 227 223 218 222 231 210 216 203 228 220 197 197 179 156 160 168 178 187 184 179 152 152 159 182 176 179 162 152 152 155 162 189 198 180 203 236 254 229 177 153 166 210 220 238 190 241 259 319 300 262 174 249 287 331 291 265 280 258 275 241 222 173 220 238 236 240 232 247 241 212 189 185 181 204 183 187 160 157 152 155 175 176 176 157 130 107 135 122 122 122 98 80 83 108 138 124 144 115 88 72 59 65 72 80 78 61 76 91 74 91 97 87 78 65 62 59 60 59 62 57 54 54 54 53 55 54 57 54 54 57 57 57 52 48 51 45 41 43 46 46 44 50 42 49 49 49 50 47 51 49 49 49 48 49 48 48 46 48 48 48 55 83 94 92 84 93 105 121 113 113 112 106 83 106 121 131 128 126 123 116 121 134 155 123 131 133 139 136 116 109 116 97 96 84 92 116 119 98 97 89 87 106 119 113 115 148 139 168 183 209 208 229 219 223 260 271 257 257 256 281 284 265 260 243 218 207 252 236 216 246 242 240 243 265 278 275 298 287 280 264 266 276 268 280
0 0 0 0 0 0 0 0 0 0 0 0 0 0 0 0 0 0 0 0 0 0 0 0 0 0 0 0 0 0 0 0 0 0 0 0 0 0 0 0 0 0 0 0 0 0 0 0 0 0 1 7 8 12 28 36 52 206 174 244 340 495 542 457 375 264 244 240 232 231 231 231 284 566 482 441 443 733 1006 1078 1084 1161 840 709 828 922 931 1372 1263 1789 1899 1577 1527 871 681 592 726 994 1066 1135 1294 1765 1895 2195 1862 2319 2098 2302 2478 2651 2582 2463 2009 1850 1589 1357 1309 1195 1066 1008 943 859 782 743 693 639 574 572 567 562 492 434 435 468 497 631 971 631 554 685 833 476 305 212 204 283 462 406 248 218 212 211 240 333 440 543 812 706 496 439 384 326 305 307 309 307 302 297 270 226 169 154 245 444 469 417 354 448 462 464 320 317 347 317 381 518 570 559 503 493 521 550 611 649 682 730 769 799 853 894 1027 1051 1244 1162 1007 1247 1460 1393 1638 1364 1202 1046 1253 1365 1655 1887 1817 1563 1582 970 876 975 1035 1152 1173 1271 1497 1235 1119 994 1123 801 961 1397 1501 1461 1235 1129 1246 1422 1513 1551 1464 1305 1471 1370 1472 1483 1643 1715 2023 2003 2098 2071 1883 1995 2249 2162 2076 1967 1857 1913 1954 1947 2035 2084 2037 1960 1999 2074 2037 2036 2007 2126 2162 2168 2248 2280 2332 2259 2288 2360 2424 2343 2343 2252 2137 2049 2041 2082 2118 2083 2147 2195 2246 2276 2357 2342 2312 2233 2229 2192 2243 2195 2209 2229 2316 2299 2389 2479 2483 2306 2230 2275 2383 2436 2372 2317 2318 2337 2345 2467 2401 2342 2443 2340 2253 2175 2156 2146 2164 2254 2361 2358 2232 2140 2103 2077 2016 1886 1821 1772 1778 1804 1779 1584 1432 1453 1528 1548 1628 1690 1776 1843 1889 1847 1773 1793 1830 1841 1819 1912 1943 1988 1974 1897 1927 1922 1936 1956 1999 2069 2148 2266 2328 2160 2091 2043 2092 2033 2023 1966 1899 1829 1786 1748 1735 1718 1687 1665 1662 1623 1571 1540 1553 1518 1524 1509 1393 1356 1334 1305 1306 1322 1300 1278 1252 1251 1217 1188 1177 1218 1228 1235 1249 1297 1328 1331 1338 1368 1404 1358 1348 1366 1329 1290 1271 1258 1250 1251 1242 1237 1236 1237 1235 1235 1233 1228 1220 1207 1196 1194 1191 1179 1168 1157 1153 1149 1148 1144 1141 1133 1125 1121 1120 1122 1120 1114 1111 1106 1102 1094 1091 1081 1083 1075 1065 1063 1048 1040 1033 1026 1019 1016 1009 1001 998 995 991 986 979 975 967 952 921 909 868 831 774 738 711 699 688 655 622 644 643 630 620 623 613 590 578 560 538 517 524 513 494 509 486 486 485 477 462 483 472 481 489 483 461 462 441 434 448 422 395 391 379 377 376 372 353 344 343 341 335 331 342 337 354 341 349 336 331 320 327 315 307 305 292 283 277 277 296 292 286 298 293 284 278 291 291 287 288 274 272 269 273 274 276 287 304 279 268 273 275 278 285 281 282 269 255 245 251 235 223 209 197 197 196 199 199 199 225 241 210 195 207 222 201 183 184 180 169 151 162 161 162 181 167 152 152 160 181 179 160 153 152 177 162 156 150 159 171 191 211 208 172 152 157 202 216 224 212 270 222 256 240 221 158 250 319 287 280 259 220 227 233 200 168 189 225 222 191 202 229 241 218 224 239 201 178 196 198 192 164 147 144 125 152 178 177 168 174 165 159 129 121 104 78 75 85 119 109 130 147 130 92 78 63 56 59 63 70 58 67 75 60 68 92 86 76 67 64 62 60 60 57 53 57 57 56 53 53 51 56 55 55 54 54 54 55 48 43 42 43 45 46 46 44 43 46 48 50 49 50 49 45 50 48 50 49 47 47 46 48 46 46 50 67 83 72 88 93 92 97 121 100 95 78 97 119 131 144 144 155 150 163 151 138 146 149 135 118 129 123 109 104 92 92 102 92 90 85 104 113 93 102 95 81 87 128 96 136 145 160 169 189 198 183 199 206 193 232 234 234 224 239 257 244 239 230 244 227 200 199 220 196 227 217 224 242 262 253 286 265 272 239 246 258 257 239 271
0 0 0 0 0 0 0 0 0 0 0 0 0 0 0 0 0 0 0 0 0 0 0 0 0 0 0 0 0 0 0 0 0 0 0 0 0 0 0 0 0 0 0 0 0 0 0 0 0 0 0 0 0 5 29 57 255 255 343 315 313 372 336 348 348 282 291 261 228 213 205 187 169 167 251 350 301 298 301 289 327 621 426 563 563 753 822 929 842 753 740 678 581 554 533 466 448 408 518 834 1059 1025 1255 1264 1298 1566 1854 2034 2034 2165 2427 2555 2130 1772 1598 1356 1266 1245 1116 1016 950 790 737 769 696 661 610 582 566 528 488 440 399 392 375 397 468 558 593 726 787 829 455 270 240 257 413 622 463 340 218 202 216 265 346 404 549 530 432 368 324 292 263 249 244 230 206 194 161 124 131 181 275 332 416 388 607 564 534 498 466 441 420 425 441 700 963 779 604 561 572 598 633 625 663 728 767 820 851 874 878 922 945 949 937 961 1048 1242 1480 1402 1347 1175 1160 1418 1610 1565 1986 1871 1708 1058 841 969 1090 1120 1178 1393 1499 1242 973 939 840 764 999 1421 1473 1750 1749 1396 1146 1276 1412 1440 1239 1184 1229 1470 1592 1601 1622 1661 1720 1835 1950 1972 1881 1797 2054 2111 1931 1990 1847 1803 1943 1888 1961 1942 2064 1901 1996 1980 1955 1964 2027 2069 2205 2199 2269 2350 2407 2501 2508 2551 2644 2588 2468 2367 2256 2157 2127 2133 2248 2203 2141 2146 2195 2279 2307 2316 2333 2335 2233 2243 2266 2249 2246 2285 2346 2350 2421 2549 2610 2394 2258 2306 2437 2611 2551 2349 2315 2319 2363 2539 2443 2331 2328 2245 2189 2157 2148 2135 2157 2300 2367 2341 2238 2142 2062 2001 1966 1941 1838 1811 1795 1884 1884 1598 1425 1429 1538 1578 1640 1721 1830 2001 1984 1912 1756 1771 1759 1757 1801 1888 1989 2005 1983 1904 1892 1888 1888 1929 1968 2027 2073 2147 2231 2152 2062 2013 2081 2049 1960 1958 1895 1832 1798 1752 1708 1706 1687 1648 1669 1626 1582 1552 1516 1498 1492 1481 1437 1405 1355 1321 1285 1270 1279 1288 1273 1242 1194 1178 1213 1229 1220 1273 1282 1282 1295 1312 1332 1345 1377 1398 1363 1324 1304 1308 1288 1263 1258 1249 1238 1232 1222 1211 1204 1203 1207 1212 1202 1188 1184 1193 1191 1184 1176 1166 1167 1160 1159 1156 1147 1147 1126 1123 1120 1123 1118 1111 1100 1096 1096 1091 1084 1077 1074 1073 1063 1058 1050 1040 1029 1024 1020 1015 1010 1001 999 994 992 989 982 973 970 962 958 945 899 817 787 773 731 706 693 656 667 687 641 610 592 570 569 575 574 528 542 548 525 527 519 522 499 517 492 491 484 479 470 454 485 480 463 448 453 445 440 407 390 373 368 365 357 355 360 362 366 361 349 335 325 328 329 337 340 324 315 307 313 320 318 309 299 301 302 275 288 278 279 276 302 279 271 293 289 276 275 278 278 271 257 265 262 271 286 303 283 259 256 276 282 274 265 273 275 263 270 248 253 221 220 233 217 225 197 188 222 226 227 209 193 210 214 202 212 198 181 164 151 147 146 159 163 155 152 153 181 182 181 160 163 175 151 124 142 151 153 183 189 182 161 144 151 179 210 222 169 240 236 217 243 158 159 249 247 235 246 217 168 206 222 206 158 162 207 192 178 195 204 216 205 189 175 183 182 178 201 209 190 163 150 149 167 152 137 146 133 124 119 91 89 63 71 73 89 109 101 125 119 134 113 85 77 63 54 57 62 56 61 61 59 65 84 88 79 75 61 60 60 59 58 58 55 55 52 53 54 53 55 53 51 55 55 52 49 49 43 44 41 44 45 46 41 43 48 46 48 47 47 48 47 49 48 48 47 47 47 46 47 46 47 47 51 76 71 64 84 79 84 83 75 73 91 114 123 117 112 119 145 154 158 151 150 140 149 120 116 124 121 118 129 113 88 86 89 88 75 87 96 93 87 113 89 89 102 118 139 162 169 167 169 189 164 166 156 192 198 207 211 219 239 246 253 230 226 222 240 217 175 205 187 202 202 248 270 230 267 260 245 237 231 216 228 228 242 246
